ply
format ascii 1.0
element vertex 769
property float x
property float y
property float z
end_header
0.126000046730041504 0.0659999847412109375 1.35199999809265137
0.162000060081481934 0.0720000267028808594 1.35199999809265137
0.180000066757202148 0.0720000267028808594 1.35199999809265137
0.203999996185302734 0.0720000267028808594 1.35199999809265137
0.228000044822692871 0.0720000267028808594 1.35199999809265137
0.251999974250793457 0.0780000686645507812 1.35199999809265137
0.276000022888183594 0.0780000686645507812 1.35199999809265137
0.30000007152557373 0.0780000686645507812 1.35199999809265137
0.342000007629394531 0.0839999914169311523 1.35199999809265137
0.353999972343444824 0.0839999914169311523 1.35199999809265137
0.378000020980834961 0.0839999914169311523 1.35199999809265137
0.420000076293945312 0.0900000333786010742 1.35199999809265137
0.425999999046325684 0.0900000333786010742 1.35199999809265137
0.45000004768371582 0.0900000333786010742 1.35199999809265137
0.480000019073486328 0.0900000333786010742 1.35199999809265137
0.503999948501586914 0.0959999561309814453 1.35199999809265137
0.528000116348266602 0.0959999561309814453 1.35199999809265137
0.552000045776367188 0.0959999561309814453 1.35199999809265137
0.575999975204467773 0.0959999561309814453 1.35199999809265137
0.611999988555908203 0.101999998092651367 1.35199999809265137
0.630000114440917969 0.101999998092651367 1.35199999809265137
0.654000043869018555 0.101999998092651367 1.35199999809265137
0.677999973297119141 0.101999998092651367 1.35199999809265137
0.71399998664855957 0.108000040054321289 1.35199999809265137
0.732000112533569336 0.108000040054321289 1.35199999809265137
0.75 0.108000040054321289 1.35199999809265137
0.924000024795532227 0.120000004768371582 1.35199999809265137
0.930000066757202148 0.120000004768371582 1.35199999809265137
0.953999996185302734 0.120000004768371582 1.35199999809265137
0.983999967575073242 0.120000004768371582 1.35199999809265137
1.00200009346008301 0.120000004768371582 1.35199999809265137
1.02600002288818359 0.120000004768371582 1.35199999809265137
1.0559999942779541 0.120000004768371582 1.35199999809265137
-0.648000001907348633 0.00600004196166992188 1.35800004005432129
-0.527999997138977051 0.0240000486373901367 1.35800004005432129
-0.371999979019165039 0.0299999713897705078 1.35800004005432129
-0.324000000953674316 0.0360000133514404297 1.35800004005432129
-0.222000002861022949 0.0420000553131103516 1.35800004005432129
-0.174000024795532227 0.0479999780654907227 1.35800004005432129
-0.14999997615814209 0.0479999780654907227 1.35800004005432129
0.251999974250793457 0.0720000267028808594 1.35800004005432129
0.605999946594238281 0.0959999561309814453 1.35800004005432129
0.630000114440917969 0.0959999561309814453 1.35800004005432129
0.779999971389770508 0.108000040054321289 1.35800004005432129
1.07999992370605469 0.120000004768371582 1.35800004005432129
-0.305999994277954102 0.707999944686889648 1.35800004005432129
-0.419999957084655762 0.0240000486373901367 1.36400008201599121
-0.29999995231628418 0.0360000133514404297 1.36400008201599121
-0.120000004768371582 0.0479999780654907227 1.36400008201599121
-0.0959999561309814453 0.0479999780654907227 1.36400008201599121
0.276000022888183594 0.0720000267028808594 1.36400008201599121
0.30000007152557373 0.0720000267028808594 1.36400008201599121
0.654000043869018555 0.0959999561309814453 1.36400008201599121
0.677999973297119141 0.0959999561309814453 1.36400008201599121
-0.305999994277954102 0.660000085830688477 1.36400008201599121
-0.737999975681304932 -0.00600004196166992188 1.37000000476837158
-0.0720000267028808594 0.0479999780654907227 1.37000000476837158
-0.0479999780654907227 0.0479999780654907227 1.37000000476837158
0.330000042915344238 0.0720000267028808594 1.37000000476837158
0.701999902725219727 0.0959999561309814453 1.37000000476837158
0.894000053405761719 0.11399996280670166 1.37000000476837158
-0.29999995231628418 0.666000127792358398 1.37000000476837158
-0.312000036239624023 0.677999973297119141 1.37000000476837158
-0.29999995231628418 0.677999973297119141 1.37000000476837158
-0.737999975681304932 -0.00600004196166992188 1.37599992752075195
-0.719999969005584717 -0.00600004196166992188 1.37599992752075195
-0.695999979972839355 -0.00600004196166992188 1.37599992752075195
-0.702000021934509277 0 1.37599992752075195
-0.695999979972839355 0 1.37599992752075195
-0.671999990940093994 0 1.37599992752075195
-0.533999979496002197 0.0180000066757202148 1.37599992752075195
-0.504000008106231689 0.0180000066757202148 1.37599992752075195
-0.498000025749206543 0.0180000066757202148 1.37599992752075195
-0.473999977111816406 0.0180000066757202148 1.37599992752075195
-0.444000005722045898 0.0180000066757202148 1.37599992752075195
-0.419999957084655762 0.0240000486373901367 1.37599992752075195
-0.396000027656555176 0.0240000486373901367 1.37599992752075195
-0.365999937057495117 0.0299999713897705078 1.37599992752075195
-0.348000049591064453 0.0299999713897705078 1.37599992752075195
-0.312000036239624023 0.0360000133514404297 1.37599992752075195
-0.29999995231628418 0.0360000133514404297 1.37599992752075195
-0.269999980926513672 0.0360000133514404297 1.37599992752075195
-0.245999932289123535 0.0360000133514404297 1.37599992752075195
-0.179999947547912598 0.0420000553131103516 1.37599992752075195
-0.174000024795532227 0.0420000553131103516 1.37599992752075195
-0.14999997615814209 0.0420000553131103516 1.37599992752075195
-0.120000004768371582 0.0420000553131103516 1.37599992752075195
-0.0959999561309814453 0.0420000553131103516 1.37599992752075195
-0.0720000267028808594 0.0479999780654907227 1.37599992752075195
-0.0479999780654907227 0.0479999780654907227 1.37599992752075195
-0.0239999294281005859 0.0479999780654907227 1.37599992752075195
0 0.0479999780654907227 1.37599992752075195
0.0240000486373901367 0.0540000200271606445 1.37599992752075195
0.0299999713897705078 0.0540000200271606445 1.37599992752075195
0.0540000200271606445 0.0540000200271606445 1.37599992752075195
0.0780000686645507812 0.0540000200271606445 1.37599992752075195
0.101999998092651367 0.0540000200271606445 1.37599992752075195
0.138000011444091797 0.0600000619888305664 1.37599992752075195
0.156000018119812012 0.0600000619888305664 1.37599992752075195
0.180000066757202148 0.0600000619888305664 1.37599992752075195
0.203999996185302734 0.0600000619888305664 1.37599992752075195
0.228000044822692871 0.0659999847412109375 1.37599992752075195
0.251999974250793457 0.0659999847412109375 1.37599992752075195
0.276000022888183594 0.0659999847412109375 1.37599992752075195
0.312000036239624023 0.0720000267028808594 1.37599992752075195
0.330000042915344238 0.0720000267028808594 1.37599992752075195
0.353999972343444824 0.0720000267028808594 1.37599992752075195
0.378000020980834961 0.0720000267028808594 1.37599992752075195
0.384000062942504883 0.0780000686645507812 1.37599992752075195
0.402000069618225098 0.0780000686645507812 1.37599992752075195
0.425999999046325684 0.0780000686645507812 1.37599992752075195
0.45000004768371582 0.0780000686645507812 1.37599992752075195
0.480000019073486328 0.0839999914169311523 1.37599992752075195
0.503999948501586914 0.0839999914169311523 1.37599992752075195
0.564000129699707031 0.0900000333786010742 1.37599992752075195
0.575999975204467773 0.0900000333786010742 1.37599992752075195
0.605999946594238281 0.0900000333786010742 1.37599992752075195
0.630000114440917969 0.0900000333786010742 1.37599992752075195
0.654000043869018555 0.0900000333786010742 1.37599992752075195
0.690000057220458984 0.0959999561309814453 1.37599992752075195
0.701999902725219727 0.0959999561309814453 1.37599992752075195
0.726000070571899414 0.0959999561309814453 1.37599992752075195
0.75 0.0959999561309814453 1.37599992752075195
0.779999971389770508 0.101999998092651367 1.37599992752075195
1.02600002288818359 0.101999998092651367 1.37599992752075195
0.881999969482421875 0.108000040054321289 1.37599992752075195
0.900000095367431641 0.108000040054321289 1.37599992752075195
0.930000066757202148 0.108000040054321289 1.37599992752075195
0.953999996185302734 0.108000040054321289 1.37599992752075195
0.97799992561340332 0.108000040054321289 1.37599992752075195
1.00200009346008301 0.108000040054321289 1.37599992752075195
1.0559999942779541 0.108000040054321289 1.37599992752075195
1.07999992370605469 0.108000040054321289 1.37599992752075195
-0.29999995231628418 0.671999931335449219 1.37599992752075195
-0.312000036239624023 0.677999973297119141 1.37599992752075195
-0.29999995231628418 0.677999973297119141 1.37599992752075195
-0.317999958992004395 0.701999902725219727 1.37599992752075195
-0.671999990940093994 -0.00600004196166992188 1.38199996948242188
-0.222000002861022949 0.0360000133514404297 1.38199996948242188
0.0299999713897705078 0.0479999780654907227 1.38199996948242188
0.528000116348266602 0.0839999914169311523 1.38199996948242188
0.779999971389770508 0.0959999561309814453 1.38199996948242188
-0.29999995231628418 0.701999902725219727 1.38199996948242188
-0.258000016212463379 0.803999900817871094 1.38199996948242188
-0.371999979019165039 0.0240000486373901367 1.3880000114440918
-0.348000049591064453 0.0240000486373901367 1.3880000114440918
0.0540000200271606445 0.0479999780654907227 1.3880000114440918
0.0780000686645507812 0.0479999780654907227 1.3880000114440918
0.402000069618225098 0.0720000267028808594 1.3880000114440918
0.425999999046325684 0.0720000267028808594 1.3880000114440918
-0.305999994277954102 0.671999931335449219 1.3880000114440918
-0.312000036239624023 0.726000070571899414 1.3880000114440918
-0.276000022888183594 0.809999942779541016 1.3880000114440918
-0.245999932289123535 0.809999942779541016 1.3880000114440918
-0.551999986171722412 0.00600004196166992188 1.39400005340576172
1.00200009346008301 0.00600004196166992188 1.39400005340576172
-0.324000000953674316 0.0240000486373901367 1.39400005340576172
1.00200009346008301 0.0299999713897705078 1.39400005340576172
0.101999998092651367 0.0479999780654907227 1.39400005340576172
0.126000046730041504 0.0479999780654907227 1.39400005340576172
0.45000004768371582 0.0720000267028808594 1.39400005340576172
0.803999900817871094 0.0959999561309814453 1.39400005340576172
0.803999900817871094 0.101999998092651367 1.39400005340576172
-0.312000036239624023 0.792000055313110352 1.39400005340576172
-0.312000036239624023 0.803999900817871094 1.39400005340576172
-0.731999993324279785 -0.0239999294281005859 1.40000009536743164
-0.719999969005584717 -0.0180000066757202148 1.40000009536743164
-0.684000015258789062 -0.011999964714050293 1.40000009536743164
-0.671999990940093994 -0.011999964714050293 1.40000009536743164
0.990000009536743164 0 1.40000009536743164
1.00200009346008301 0 1.40000009536743164
-0.551999986171722412 0.00600004196166992188 1.40000009536743164
-0.546000003814697266 0.00600004196166992188 1.40000009536743164
-0.522000014781951904 0.00600004196166992188 1.40000009536743164
-0.498000025749206543 0.00600004196166992188 1.40000009536743164
-0.467999935150146484 0.011999964714050293 1.40000009536743164
-0.444000005722045898 0.011999964714050293 1.40000009536743164
-0.407999992370605469 0.0180000066757202148 1.40000009536743164
-0.396000027656555176 0.0180000066757202148 1.40000009536743164
-0.371999979019165039 0.0180000066757202148 1.40000009536743164
-0.342000007629394531 0.0240000486373901367 1.40000009536743164
-0.324000000953674316 0.0240000486373901367 1.40000009536743164
-0.29999995231628418 0.0240000486373901367 1.40000009536743164
-0.258000016212463379 0.0299999713897705078 1.40000009536743164
-0.245999932289123535 0.0299999713897705078 1.40000009536743164
-0.222000002861022949 0.0299999713897705078 1.40000009536743164
-0.197999954223632812 0.0299999713897705078 1.40000009536743164
-0.174000024795532227 0.0299999713897705078 1.40000009536743164
-0.14999997615814209 0.0299999713897705078 1.40000009536743164
0.990000009536743164 0.0299999713897705078 1.40000009536743164
1.00200009346008301 0.0299999713897705078 1.40000009536743164
-0.108000040054321289 0.0360000133514404297 1.40000009536743164
-0.0959999561309814453 0.0360000133514404297 1.40000009536743164
-0.0720000267028808594 0.0360000133514404297 1.40000009536743164
-0.0479999780654907227 0.0360000133514404297 1.40000009536743164
-0.011999964714050293 0.0420000553131103516 1.40000009536743164
0 0.0420000553131103516 1.40000009536743164
0.0299999713897705078 0.0420000553131103516 1.40000009536743164
0.0540000200271606445 0.0420000553131103516 1.40000009536743164
0.0900000333786010742 0.0479999780654907227 1.40000009536743164
0.101999998092651367 0.0479999780654907227 1.40000009536743164
0.126000046730041504 0.0479999780654907227 1.40000009536743164
0.156000018119812012 0.0479999780654907227 1.40000009536743164
0.18599998950958252 0.0540000200271606445 1.40000009536743164
0.203999996185302734 0.0540000200271606445 1.40000009536743164
0.228000044822692871 0.0540000200271606445 1.40000009536743164
0.251999974250793457 0.0540000200271606445 1.40000009536743164
0.996000051498413086 0.0540000200271606445 1.40000009536743164
1.00200009346008301 0.0540000200271606445 1.40000009536743164
0.282000064849853516 0.0600000619888305664 1.40000009536743164
0.30000007152557373 0.0600000619888305664 1.40000009536743164
0.330000042915344238 0.0600000619888305664 1.40000009536743164
0.360000014305114746 0.0659999847412109375 1.40000009536743164
0.378000020980834961 0.0659999847412109375 1.40000009536743164
0.402000069618225098 0.0659999847412109375 1.40000009536743164
0.432000041007995605 0.0720000267028808594 1.40000009536743164
0.45000004768371582 0.0720000267028808594 1.40000009536743164
0.480000019073486328 0.0720000267028808594 1.40000009536743164
0.503999948501586914 0.0720000267028808594 1.40000009536743164
0.516000032424926758 0.0780000686645507812 1.40000009536743164
0.528000116348266602 0.0780000686645507812 1.40000009536743164
0.552000045776367188 0.0780000686645507812 1.40000009536743164
0.575999975204467773 0.0780000686645507812 1.40000009536743164
0.605999946594238281 0.0780000686645507812 1.40000009536743164
0.630000114440917969 0.0780000686645507812 1.40000009536743164
0.654000043869018555 0.0839999914169311523 1.40000009536743164
0.677999973297119141 0.0839999914169311523 1.40000009536743164
0.701999902725219727 0.0839999914169311523 1.40000009536743164
0.726000070571899414 0.0839999914169311523 1.40000009536743164
0.75 0.0839999914169311523 1.40000009536743164
0.792000055313110352 0.0900000333786010742 1.40000009536743164
0.803999900817871094 0.0959999561309814453 1.40000009536743164
0.888000011444091797 0.0959999561309814453 1.40000009536743164
0.900000095367431641 0.0959999561309814453 1.40000009536743164
0.983999967575073242 0.0959999561309814453 1.40000009536743164
0.864000082015991211 0.101999998092651367 1.40000009536743164
0.875999927520751953 0.101999998092651367 1.40000009536743164
0.941999912261962891 0.101999998092651367 1.40000009536743164
0.953999996185302734 0.101999998092651367 1.40000009536743164
0.97799992561340332 0.101999998092651367 1.40000009536743164
1.00800013542175293 0.101999998092651367 1.40000009536743164
1.02600002288818359 0.101999998092651367 1.40000009536743164
1.0559999942779541 0.101999998092651367 1.40000009536743164
-0.305999994277954102 0.696000099182128906 1.40000009536743164
-0.305999994277954102 0.701999902725219727 1.40000009536743164
-0.312000036239624023 0.726000070571899414 1.40000009536743164
-0.317999958992004395 0.75 1.40000009536743164
-0.330000042915344238 0.762000083923339844 1.40000009536743164
-0.312000036239624023 0.792000055313110352 1.40000009536743164
-0.312000036239624023 0.803999900817871094 1.40000009536743164
-0.29999995231628418 0.803999900817871094 1.40000009536743164
-0.269999980926513672 0.803999900817871094 1.40000009536743164
-0.245999932289123535 0.803999900817871094 1.40000009536743164
-0.215999960899353027 0.809999942779541016 1.40000009536743164
-0.197999954223632812 0.809999942779541016 1.40000009536743164
-0.269999980926513672 0.0240000486373901367 1.40600001811981201
-0.245999932289123535 0.0240000486373901367 1.40600001811981201
0.180000066757202148 0.0479999780654907227 1.40600001811981201
0.203999996185302734 0.0479999780654907227 1.40600001811981201
0.528000116348266602 0.0720000267028808594 1.40600001811981201
0.552000045776367188 0.0720000267028808594 1.40600001811981201
0.851999998092651367 0.0959999561309814453 1.40600001811981201
1.07999992370605469 0.101999998092651367 1.40600001811981201
-0.29999995231628418 0.798000097274780273 1.40600001811981201
-0.269999980926513672 0.798000097274780273 1.40600001811981201
-0.174000024795532227 0.809999942779541016 1.40600001811981201
0.9720001220703125 -0.00600004196166992188 1.41199994087219238
0.97799992561340332 -0.00600004196166992188 1.41199994087219238
1.00800013542175293 -0.00600004196166992188 1.41199994087219238
0.9720001220703125 0 1.41199994087219238
-0.222000002861022949 0.0240000486373901367 1.41199994087219238
-0.197999954223632812 0.0240000486373901367 1.41199994087219238
0.9720001220703125 0.0299999713897705078 1.41199994087219238
0.228000044822692871 0.0479999780654907227 1.41199994087219238
0.9720001220703125 0.0540000200271606445 1.41199994087219238
0.575999975204467773 0.0720000267028808594 1.41199994087219238
0.605999946594238281 0.0720000267028808594 1.41199994087219238
0.630000114440917969 0.0720000267028808594 1.41199994087219238
0.654000043869018555 0.0720000267028808594 1.41199994087219238
0.9720001220703125 0.0780000686645507812 1.41199994087219238
1.00200009346008301 0.0780000686645507812 1.41199994087219238
0.828000068664550781 0.0959999561309814453 1.41199994087219238
-0.14999997615814209 0.809999942779541016 1.41199994087219238
-0.120000004768371582 0.809999942779541016 1.41199994087219238
-0.731999993324279785 -0.0299999713897705078 1.4179999828338623
-0.569999992847442627 -0.00600004196166992188 1.4179999828338623
-0.546000003814697266 -0.00600004196166992188 1.4179999828338623
-0.174000024795532227 0.0240000486373901367 1.4179999828338623
-0.14999997615814209 0.0240000486373901367 1.4179999828338623
-0.120000004768371582 0.0240000486373901367 1.4179999828338623
0.251999974250793457 0.0479999780654907227 1.4179999828338623
0.276000022888183594 0.0479999780654907227 1.4179999828338623
0.677999973297119141 0.0720000267028808594 1.4179999828338623
0.701999902725219727 0.0720000267028808594 1.4179999828338623
0.930000066757202148 0.0959999561309814453 1.4179999828338623
-0.222000002861022949 0.798000097274780273 1.4179999828338623
-0.0959999561309814453 0.809999942779541016 1.4179999828338623
-0.522000014781951904 -0.00600004196166992188 1.42400002479553223
-0.0959999561309814453 0.0240000486373901367 1.42400002479553223
-0.0720000267028808594 0.0240000486373901367 1.42400002479553223
0.30000007152557373 0.0479999780654907227 1.42400002479553223
-0.245999932289123535 0.798000097274780273 1.42400002479553223
-0.192000031471252441 0.798000097274780273 1.42400002479553223
-0.174000024795532227 0.798000097274780273 1.42400002479553223
-0.0720000267028808594 0.809999942779541016 1.42400002479553223
-0.726000010967254639 -0.0299999713897705078 1.43000006675720215
-0.719999969005584717 -0.0299999713897705078 1.43000006675720215
-0.708000004291534424 -0.0239999294281005859 1.43000006675720215
-0.695999979972839355 -0.0239999294281005859 1.43000006675720215
-0.582000017166137695 -0.011999964714050293 1.43000006675720215
-0.569999992847442627 -0.011999964714050293 1.43000006675720215
-0.546000003814697266 -0.011999964714050293 1.43000006675720215
0.947999954223632812 -0.011999964714050293 1.43000006675720215
0.953999996185302734 -0.011999964714050293 1.43000006675720215
0.97799992561340332 -0.011999964714050293 1.43000006675720215
-0.522000014781951904 -0.00600004196166992188 1.43000006675720215
-0.498000025749206543 -0.00600004196166992188 1.43000006675720215
1.00800013542175293 -0.00600004196166992188 1.43000006675720215
-0.473999977111816406 0 1.43000006675720215
-0.444000005722045898 0 1.43000006675720215
0.947999954223632812 0 1.43000006675720215
0.953999996185302734 0 1.43000006675720215
-0.407999992370605469 0.00600004196166992188 1.43000006675720215
-0.396000027656555176 0.00600004196166992188 1.43000006675720215
-0.335999965667724609 0.011999964714050293 1.43000006675720215
-0.324000000953674316 0.011999964714050293 1.43000006675720215
-0.29999995231628418 0.011999964714050293 1.43000006675720215
-0.269999980926513672 0.011999964714050293 1.43000006675720215
-0.240000009536743164 0.0180000066757202148 1.43000006675720215
-0.222000002861022949 0.0180000066757202148 1.43000006675720215
-0.197999954223632812 0.0180000066757202148 1.43000006675720215
-0.174000024795532227 0.0180000066757202148 1.43000006675720215
-0.14999997615814209 0.0180000066757202148 1.43000006675720215
-0.101999998092651367 0.0240000486373901367 1.43000006675720215
-0.0959999561309814453 0.0240000486373901367 1.43000006675720215
-0.0720000267028808594 0.0240000486373901367 1.43000006675720215
-0.0479999780654907227 0.0240000486373901367 1.43000006675720215
-0.0239999294281005859 0.0240000486373901367 1.43000006675720215
-0.00600004196166992188 0.0299999713897705078 1.43000006675720215
0 0.0299999713897705078 1.43000006675720215
0.0299999713897705078 0.0299999713897705078 1.43000006675720215
0.0540000200271606445 0.0299999713897705078 1.43000006675720215
0.0780000686645507812 0.0299999713897705078 1.43000006675720215
0.947999954223632812 0.0299999713897705078 1.43000006675720215
0.953999996185302734 0.0299999713897705078 1.43000006675720215
0.101999998092651367 0.0360000133514404297 1.43000006675720215
0.126000046730041504 0.0360000133514404297 1.43000006675720215
0.156000018119812012 0.0360000133514404297 1.43000006675720215
0.180000066757202148 0.0360000133514404297 1.43000006675720215
0.203999996185302734 0.0420000553131103516 1.43000006675720215
0.228000044822692871 0.0420000553131103516 1.43000006675720215
0.251999974250793457 0.0420000553131103516 1.43000006675720215
0.276000022888183594 0.0420000553131103516 1.43000006675720215
0.30000007152557373 0.0420000553131103516 1.43000006675720215
0.330000042915344238 0.0479999780654907227 1.43000006675720215
0.353999972343444824 0.0479999780654907227 1.43000006675720215
0.353999972343444824 0.0540000200271606445 1.43000006675720215
0.378000020980834961 0.0540000200271606445 1.43000006675720215
0.402000069618225098 0.0540000200271606445 1.43000006675720215
0.425999999046325684 0.0540000200271606445 1.43000006675720215
0.947999954223632812 0.0540000200271606445 1.43000006675720215
0.953999996185302734 0.0540000200271606445 1.43000006675720215
0.45000004768371582 0.0600000619888305664 1.43000006675720215
0.480000019073486328 0.0600000619888305664 1.43000006675720215
0.503999948501586914 0.0600000619888305664 1.43000006675720215
0.564000129699707031 0.0659999847412109375 1.43000006675720215
0.575999975204467773 0.0659999847412109375 1.43000006675720215
0.666000127792358398 0.0720000267028808594 1.43000006675720215
0.677999973297119141 0.0720000267028808594 1.43000006675720215
0.71399998664855957 0.0720000267028808594 1.43000006675720215
0.75 0.0780000686645507812 1.43000006675720215
0.947999954223632812 0.0780000686645507812 1.43000006675720215
0.953999996185302734 0.0780000686645507812 1.43000006675720215
0.798000097274780273 0.0900000333786010742 1.43000006675720215
0.881999969482421875 0.0900000333786010742 1.43000006675720215
0.900000095367431641 0.0900000333786010742 1.43000006675720215
1.00800013542175293 0.0900000333786010742 1.43000006675720215
0.870000123977661133 0.0959999561309814453 1.43000006675720215
0.900000095367431641 0.101999998092651367 1.43000006675720215
-0.324000000953674316 0.737999916076660156 1.43000006675720215
-0.317999958992004395 0.768000125885009766 1.43000006675720215
-0.317999958992004395 0.779999971389770508 1.43000006675720215
-0.294000029563903809 0.792000055313110352 1.43000006675720215
-0.269999980926513672 0.792000055313110352 1.43000006675720215
-0.245999932289123535 0.792000055313110352 1.43000006675720215
-0.222000002861022949 0.798000097274780273 1.43000006675720215
-0.197999954223632812 0.798000097274780273 1.43000006675720215
-0.174000024795532227 0.798000097274780273 1.43000006675720215
-0.251999974250793457 0.803999900817871094 1.43000006675720215
-0.240000009536743164 0.803999900817871094 1.43000006675720215
-0.215999960899353027 0.803999900817871094 1.43000006675720215
-0.197999954223632812 0.803999900817871094 1.43000006675720215
-0.174000024795532227 0.803999900817871094 1.43000006675720215
-0.14999997615814209 0.803999900817871094 1.43000006675720215
-0.120000004768371582 0.803999900817871094 1.43000006675720215
-0.0900000333786010742 0.803999900817871094 1.43000006675720215
-0.0720000267028808594 0.809999942779541016 1.43000006675720215
-0.0479999780654907227 0.809999942779541016 1.43000006675720215
-0.0239999294281005859 0.809999942779541016 1.43000006675720215
-0.473999977111816406 -0.00600004196166992188 1.43599998950958252
-0.371999979019165039 0.00600004196166992188 1.43599998950958252
0 0.0240000486373901367 1.43599998950958252
0.378000020980834961 0.0479999780654907227 1.43599998950958252
0.528000116348266602 0.0600000619888305664 1.43599998950958252
0.803999900817871094 0.0900000333786010742 1.43599998950958252
-0.324000000953674316 0.71399998664855957 1.43599998950958252
-0.14999997615814209 0.798000097274780273 1.43599998950958252
0 0.809999942779541016 1.43599998950958252
-0.689999997615814209 -0.0299999713897705078 1.44200003147125244
0.924000024795532227 0.011999964714050293 1.44200003147125244
0.0299999713897705078 0.0240000486373901367 1.44200003147125244
0.0540000200271606445 0.0240000486373901367 1.44200003147125244
0.0780000686645507812 0.0240000486373901367 1.44200003147125244
0.924000024795532227 0.0479999780654907227 1.44200003147125244
0.924000024795532227 0.0600000619888305664 1.44200003147125244
0.737999916076660156 0.0780000686645507812 1.44200003147125244
-0.330000042915344238 0.756000041961669922 1.44200003147125244
-0.120000004768371582 0.798000097274780273 1.44200003147125244
-0.0959999561309814453 0.798000097274780273 1.44200003147125244
0.0299999713897705078 0.809999942779541016 1.44200003147125244
0.924000024795532227 -0.0239999294281005859 1.44799995422363281
-0.444000005722045898 -0.00600004196166992188 1.44799995422363281
0.101999998092651367 0.0240000486373901367 1.44799995422363281
0.402000069618225098 0.0479999780654907227 1.44799995422363281
0.630000114440917969 0.0720000267028808594 1.44799995422363281
-0.330000042915344238 0.743999958038330078 1.44799995422363281
-0.0720000267028808594 0.798000097274780273 1.44799995422363281
-0.0479999780654907227 0.798000097274780273 1.44799995422363281
0.0720000267028808594 0.803999900817871094 1.44799995422363281
-0.75 -0.0419999361038208008 1.45399999618530273
-0.719999969005584717 -0.0360000133514404297 1.45399999618530273
-0.593999981880187988 -0.0239999294281005859 1.45399999618530273
0.906000137329101562 -0.0239999294281005859 1.45399999618530273
0.930000066757202148 -0.0239999294281005859 1.45399999618530273
-0.557999968528747559 -0.0180000066757202148 1.45399999618530273
-0.546000003814697266 -0.0180000066757202148 1.45399999618530273
-0.522000014781951904 -0.0180000066757202148 1.45399999618530273
0.966000080108642578 -0.0180000066757202148 1.45399999618530273
-0.498000025749206543 -0.011999964714050293 1.45399999618530273
-0.473999977111816406 -0.011999964714050293 1.45399999618530273
0.97799992561340332 -0.011999964714050293 1.45399999618530273
-0.437999963760375977 -0.00600004196166992188 1.45399999618530273
-0.419999957084655762 -0.00600004196166992188 1.45399999618530273
-0.396000027656555176 -0.00600004196166992188 1.45399999618530273
-0.371999979019165039 0 1.45399999618530273
-0.348000049591064453 0 1.45399999618530273
-0.324000000953674316 0 1.45399999618530273
0.906000137329101562 0 1.45399999618530273
-0.276000022888183594 0.00600004196166992188 1.45399999618530273
-0.269999980926513672 0.00600004196166992188 1.45399999618530273
-0.245999932289123535 0.00600004196166992188 1.45399999618530273
-0.222000002861022949 0.00600004196166992188 1.45399999618530273
-0.197999954223632812 0.00600004196166992188 1.45399999618530273
-0.143999934196472168 0.011999964714050293 1.45399999618530273
-0.120000004768371582 0.011999964714050293 1.45399999618530273
-0.0959999561309814453 0.011999964714050293 1.45399999618530273
-0.0720000267028808594 0.011999964714050293 1.45399999618530273
-0.0479999780654907227 0.011999964714050293 1.45399999618530273
-0.0239999294281005859 0.011999964714050293 1.45399999618530273
0 0.0180000066757202148 1.45399999618530273
0.0299999713897705078 0.0180000066757202148 1.45399999618530273
0.0540000200271606445 0.0180000066757202148 1.45399999618530273
0.0900000333786010742 0.0240000486373901367 1.45399999618530273
0.101999998092651367 0.0240000486373901367 1.45399999618530273
0.126000046730041504 0.0240000486373901367 1.45399999618530273
0.198000073432922363 0.0299999713897705078 1.45399999618530273
0.203999996185302734 0.0299999713897705078 1.45399999618530273
0.228000044822692871 0.0299999713897705078 1.45399999618530273
0.906000137329101562 0.0299999713897705078 1.45399999618530273
0.282000064849853516 0.0360000133514404297 1.45399999618530273
0.342000007629394531 0.0420000553131103516 1.45399999618530273
0.353999972343444824 0.0420000553131103516 1.45399999618530273
0.396000027656555176 0.0479999780654907227 1.45399999618530273
0.402000069618225098 0.0479999780654907227 1.45399999618530273
0.462000012397766113 0.0540000200271606445 1.45399999618530273
0.917999982833862305 0.0540000200271606445 1.45399999618530273
0.52200007438659668 0.0600000619888305664 1.45399999618530273
0.528000116348266602 0.0600000619888305664 1.45399999618530273
0.552000045776367188 0.0600000619888305664 1.45399999618530273
0.575999975204467773 0.0659999847412109375 1.45399999618530273
0.930000066757202148 0.0659999847412109375 1.45399999618530273
0.911999940872192383 0.0780000686645507812 1.45399999618530273
0.881999969482421875 0.0959999561309814453 1.45399999618530273
0.911999940872192383 0.101999998092651367 1.45399999618530273
-0.330000042915344238 0.756000041961669922 1.45399999618530273
-0.324000000953674316 0.762000083923339844 1.45399999618530273
-0.324000000953674316 0.779999971389770508 1.45399999618530273
-0.29999995231628418 0.779999971389770508 1.45399999618530273
-0.26399993896484375 0.779999971389770508 1.45399999618530273
-0.330000042915344238 0.78600001335144043 1.45399999618530273
-0.245999932289123535 0.78600001335144043 1.45399999618530273
-0.222000002861022949 0.78600001335144043 1.45399999618530273
-0.197999954223632812 0.792000055313110352 1.45399999618530273
-0.174000024795532227 0.792000055313110352 1.45399999618530273
-0.14999997615814209 0.792000055313110352 1.45399999618530273
-0.120000004768371582 0.792000055313110352 1.45399999618530273
-0.0900000333786010742 0.792000055313110352 1.45399999618530273
-0.0720000267028808594 0.798000097274780273 1.45399999618530273
-0.0479999780654907227 0.798000097274780273 1.45399999618530273
-0.0239999294281005859 0.798000097274780273 1.45399999618530273
0 0.798000097274780273 1.45399999618530273
-0.0720000267028808594 0.803999900817871094 1.45399999618530273
-0.0479999780654907227 0.803999900817871094 1.45399999618530273
-0.0239999294281005859 0.803999900817871094 1.45399999618530273
0 0.803999900817871094 1.45399999618530273
0.0299999713897705078 0.803999900817871094 1.45399999618530273
0.0540000200271606445 0.803999900817871094 1.45399999618530273
0.0839999914169311523 0.803999900817871094 1.45399999618530273
-0.695999979972839355 -0.0360000133514404297 1.46000003814697266
0.900000095367431641 -0.0299999713897705078 1.46000003814697266
-0.371999979019165039 -0.00600004196166992188 1.46000003814697266
-0.174000024795532227 0.00600004196166992188 1.46000003814697266
0.156000018119812012 0.0240000486373901367 1.46000003814697266
0.305999994277954102 0.0360000133514404297 1.46000003814697266
0.480000019073486328 0.0600000619888305664 1.46000003814697266
0.0479999780654907227 0.798000097274780273 1.46000003814697266
0.101999998092651367 0.803999900817871094 1.46000003814697266
0.126000046730041504 0.803999900817871094 1.46000003814697266
0.156000018119812012 0.803999900817871094 1.46000003814697266
-0.599999964237213135 -0.0299999713897705078 1.46600008010864258
0.894000053405761719 -0.0299999713897705078 1.46600008010864258
0.894000053405761719 -0.0239999294281005859 1.46600008010864258
-0.348000049591064453 -0.00600004196166992188 1.46600008010864258
-0.324000000953674316 -0.00600004196166992188 1.46600008010864258
0.894000053405761719 0 1.46600008010864258
0.18599998950958252 0.0240000486373901367 1.46600008010864258
0.251999974250793457 0.0299999713897705078 1.46600008010864258
0.894000053405761719 0.0299999713897705078 1.46600008010864258
0.407999992370605469 0.0540000200271606445 1.46600008010864258
0.425999999046325684 0.0540000200271606445 1.46600008010864258
0.0540000200271606445 0.798000097274780273 1.46600008010864258
0.180000066757202148 0.803999900817871094 1.46600008010864258
-0.606000006198883057 -0.0299999713897705078 1.47200000286102295
-0.569999992847442627 -0.0299999713897705078 1.47200000286102295
0.930000066757202148 -0.0299999713897705078 1.47200000286102295
-0.29999995231628418 -0.00600004196166992188 1.47200000286102295
-0.269999980926513672 -0.00600004196166992188 1.47200000286102295
-0.245999932289123535 -0.00600004196166992188 1.47200000286102295
-0.222000002861022949 -0.00600004196166992188 1.47200000286102295
-0.197999954223632812 -0.00600004196166992188 1.47200000286102295
-0.174000024795532227 -0.00600004196166992188 1.47200000286102295
-0.29999995231628418 0.773999929428100586 1.47200000286102295
-0.269999980926513672 0.773999929428100586 1.47200000286102295
0.0780000686645507812 0.798000097274780273 1.47200000286102295
0.101999998092651367 0.798000097274780273 1.47200000286102295
0.126000046730041504 0.798000097274780273 1.47200000286102295
0.156000018119812012 0.798000097274780273 1.47200000286102295
0.258000016212463379 0.798000097274780273 1.47200000286102295
-0.324000000953674316 0.803999900817871094 1.47200000286102295
0.203999996185302734 0.803999900817871094 1.47200000286102295
0.228000044822692871 0.803999900817871094 1.47200000286102295
0.258000016212463379 0.803999900817871094 1.47200000286102295
-0.726000010967254639 -0.0540000200271606445 1.47799992561340332
-0.726000010967254639 -0.0479999780654907227 1.47799992561340332
-0.719999969005584717 -0.0479999780654907227 1.47799992561340332
-0.606000006198883057 -0.0360000133514404297 1.47799992561340332
-0.599999964237213135 -0.0360000133514404297 1.47799992561340332
0.875999927520751953 -0.0360000133514404297 1.47799992561340332
0.900000095367431641 -0.0360000133514404297 1.47799992561340332
-0.569999992847442627 -0.0299999713897705078 1.47799992561340332
-0.546000003814697266 -0.0299999713897705078 1.47799992561340332
0.930000066757202148 -0.0299999713897705078 1.47799992561340332
-0.527999997138977051 -0.0239999294281005859 1.47799992561340332
-0.522000014781951904 -0.0239999294281005859 1.47799992561340332
-0.498000025749206543 -0.0239999294281005859 1.47799992561340332
0.875999927520751953 -0.0239999294281005859 1.47799992561340332
-0.462000012397766113 -0.0180000066757202148 1.47799992561340332
-0.444000005722045898 -0.0180000066757202148 1.47799992561340332
-0.419999957084655762 -0.0180000066757202148 1.47799992561340332
-0.396000027656555176 -0.011999964714050293 1.47799992561340332
-0.371999979019165039 -0.011999964714050293 1.47799992561340332
-0.348000049591064453 -0.011999964714050293 1.47799992561340332
-0.324000000953674316 -0.011999964714050293 1.47799992561340332
-0.29999995231628418 -0.011999964714050293 1.47799992561340332
-0.269999980926513672 -0.00600004196166992188 1.47799992561340332
-0.245999932289123535 -0.00600004196166992188 1.47799992561340332
-0.222000002861022949 -0.00600004196166992188 1.47799992561340332
-0.197999954223632812 -0.00600004196166992188 1.47799992561340332
-0.174000024795532227 -0.00600004196166992188 1.47799992561340332
-0.14999997615814209 -0.00600004196166992188 1.47799992561340332
-0.14999997615814209 0 1.47799992561340332
-0.120000004768371582 0 1.47799992561340332
-0.0959999561309814453 0 1.47799992561340332
0.875999927520751953 0 1.47799992561340332
-0.0360000133514404297 0.00600004196166992188 1.47799992561340332
0.870000123977661133 0.00600004196166992188 1.47799992561340332
0.0180000066757202148 0.011999964714050293 1.47799992561340332
0.0299999713897705078 0.011999964714050293 1.47799992561340332
0.0780000686645507812 0.0180000066757202148 1.47799992561340332
0.131999969482421875 0.0240000486373901367 1.47799992561340332
0.156000018119812012 0.0240000486373901367 1.47799992561340332
0.180000066757202148 0.0240000486373901367 1.47799992561340332
0.246000051498413086 0.0299999713897705078 1.47799992561340332
0.258000016212463379 0.0299999713897705078 1.47799992561340332
0.870000123977661133 0.0299999713897705078 1.47799992561340332
0.875999927520751953 0.0299999713897705078 1.47799992561340332
0.282000064849853516 0.0360000133514404297 1.47799992561340332
0.371999979019165039 0.0479999780654907227 1.47799992561340332
0.906000137329101562 0.0479999780654907227 1.47799992561340332
0.917999982833862305 0.0540000200271606445 1.47799992561340332
0.924000024795532227 0.0780000686645507812 1.47799992561340332
0.870000123977661133 0.0839999914169311523 1.47799992561340332
0.875999927520751953 0.0839999914169311523 1.47799992561340332
-0.342000007629394531 0.756000041961669922 1.47799992561340332
-0.324000000953674316 0.768000125885009766 1.47799992561340332
-0.29999995231628418 0.773999929428100586 1.47799992561340332
-0.269999980926513672 0.773999929428100586 1.47799992561340332
-0.245999932289123535 0.773999929428100586 1.47799992561340332
-0.26399993896484375 0.779999971389770508 1.47799992561340332
-0.245999932289123535 0.779999971389770508 1.47799992561340332
-0.222000002861022949 0.779999971389770508 1.47799992561340332
-0.197999954223632812 0.779999971389770508 1.47799992561340332
-0.174000024795532227 0.779999971389770508 1.47799992561340332
-0.14999997615814209 0.779999971389770508 1.47799992561340332
-0.120000004768371582 0.78600001335144043 1.47799992561340332
-0.0959999561309814453 0.78600001335144043 1.47799992561340332
-0.0720000267028808594 0.78600001335144043 1.47799992561340332
-0.0479999780654907227 0.792000055313110352 1.47799992561340332
-0.0239999294281005859 0.792000055313110352 1.47799992561340332
0 0.792000055313110352 1.47799992561340332
0.0299999713897705078 0.792000055313110352 1.47799992561340332
0.0540000200271606445 0.792000055313110352 1.47799992561340332
-0.330000042915344238 0.798000097274780273 1.47799992561340332
0.0780000686645507812 0.798000097274780273 1.47799992561340332
0.101999998092651367 0.798000097274780273 1.47799992561340332
0.126000046730041504 0.798000097274780273 1.47799992561340332
0.156000018119812012 0.798000097274780273 1.47799992561340332
0.18599998950958252 0.798000097274780273 1.47799992561340332
0.210000038146972656 0.798000097274780273 1.47799992561340332
0.233999967575073242 0.798000097274780273 1.47799992561340332
0.251999974250793457 0.798000097274780273 1.47799992561340332
0.276000022888183594 0.798000097274780273 1.47799992561340332
-0.330000042915344238 0.803999900817871094 1.47799992561340332
0.0659999847412109375 0.803999900817871094 1.47799992561340332
0.0780000686645507812 0.803999900817871094 1.47799992561340332
0.126000046730041504 0.803999900817871094 1.47799992561340332
0.156000018119812012 0.803999900817871094 1.47799992561340332
0.180000066757202148 0.803999900817871094 1.47799992561340332
0.203999996185302734 0.803999900817871094 1.47799992561340332
0.228000044822692871 0.803999900817871094 1.47799992561340332
0.251999974250793457 0.803999900817871094 1.47799992561340332
0.287999987602233887 0.803999900817871094 1.47799992561340332
-0.719999969005584717 -0.0540000200271606445 1.48399996757507324
0.864000082015991211 -0.0419999361038208008 1.48399996757507324
-0.522000014781951904 -0.0299999713897705078 1.48399996757507324
0.870000123977661133 -0.0239999294281005859 1.48399996757507324
-0.0720000267028808594 0 1.48399996757507324
0.0659999847412109375 0.0180000066757202148 1.48399996757507324
0.101999998092651367 0.0240000486373901367 1.48399996757507324
0.210000038146972656 0.0299999713897705078 1.48399996757507324
0.930000066757202148 0.0600000619888305664 1.48399996757507324
-0.222000002861022949 0.773999929428100586 1.48399996757507324
-0.192000031471252441 0.773999929428100586 1.48399996757507324
0.162000060081481934 0.773999929428100586 1.48399996757507324
-0.324000000953674316 0.798000097274780273 1.48399996757507324
0.30000007152557373 0.803999900817871094 1.48399996757507324
-0.755999982357025146 -0.0479999780654907227 1.49000000953674316
-0.498000025749206543 -0.0299999713897705078 1.49000000953674316
-0.473999977111816406 -0.0299999713897705078 1.49000000953674316
-0.215999960899353027 0.726000070571899414 1.49000000953674316
-0.444000005722045898 -0.0299999713897705078 1.49600005149841309
0.845999956130981445 -0.011999964714050293 1.49600005149841309
0.845999956130981445 0 1.49600005149841309
0.845999956130981445 0.0720000267028808594 1.49600005149841309
0.851999998092651367 0.0720000267028808594 1.49600005149841309
0.845999956130981445 0.0780000686645507812 1.49600005149841309
-0.324000000953674316 0.720000028610229492 1.49600005149841309
0.0900000333786010742 0.768000125885009766 1.49600005149841309
-0.174000024795532227 0.773999929428100586 1.49600005149841309
-0.14999997615814209 0.773999929428100586 1.49600005149841309
-0.0659999847412109375 0.773999929428100586 1.49600005149841309
0.101999998092651367 0.773999929428100586 1.49600005149841309
-0.719999969005584717 -0.0540000200271606445 1.50199997425079346
-0.611999988555908203 -0.0479999780654907227 1.50199997425079346
0.839999914169311523 -0.0479999780654907227 1.50199997425079346
0.851999998092651367 -0.0479999780654907227 1.50199997425079346
-0.599999964237213135 -0.0419999361038208008 1.50199997425079346
-0.569999992847442627 -0.0419999361038208008 1.50199997425079346
0.894000053405761719 -0.0419999361038208008 1.50199997425079346
-0.539999961853027344 -0.0360000133514404297 1.50199997425079346
-0.522000014781951904 -0.0360000133514404297 1.50199997425079346
-0.467999935150146484 -0.0299999713897705078 1.50199997425079346
-0.444000005722045898 -0.0299999713897705078 1.50199997425079346
-0.419999957084655762 -0.0299999713897705078 1.50199997425079346
-0.407999992370605469 -0.0239999294281005859 1.50199997425079346
-0.396000027656555176 -0.0239999294281005859 1.50199997425079346
0.839999914169311523 -0.0239999294281005859 1.50199997425079346
0.851999998092651367 -0.0239999294281005859 1.50199997425079346
-0.324000000953674316 -0.0180000066757202148 1.50199997425079346
-0.258000016212463379 -0.011999964714050293 1.50199997425079346
-0.245999932289123535 -0.011999964714050293 1.50199997425079346
-0.143999934196472168 -0.00600004196166992188 1.50199997425079346
-0.101999998092651367 0 1.50199997425079346
-0.0959999561309814453 0 1.50199997425079346
0.834000110626220703 0 1.50199997425079346
0.851999998092651367 0 1.50199997425079346
-0.011999964714050293 0.011999964714050293 1.50199997425079346
0.851999998092651367 0.0299999713897705078 1.50199997425079346
0.839999914169311523 0.0720000267028808594 1.50199997425079346
0.851999998092651367 0.0720000267028808594 1.50199997425079346
0.839999914169311523 0.0780000686645507812 1.50199997425079346
0.851999998092651367 0.0780000686645507812 1.50199997425079346
0.881999969482421875 0.0780000686645507812 1.50199997425079346
0.911999940872192383 0.0959999561309814453 1.50199997425079346
-0.324000000953674316 0.720000028610229492 1.50199997425079346
-0.348000049591064453 0.756000041961669922 1.50199997425079346
-0.324000000953674316 0.756000041961669922 1.50199997425079346
-0.29999995231628418 0.762000083923339844 1.50199997425079346
0.011999964714050293 0.762000083923339844 1.50199997425079346
-0.269999980926513672 0.768000125885009766 1.50199997425079346
-0.245999932289123535 0.768000125885009766 1.50199997425079346
-0.222000002861022949 0.768000125885009766 1.50199997425079346
-0.197999954223632812 0.768000125885009766 1.50199997425079346
-0.174000024795532227 0.768000125885009766 1.50199997425079346
-0.011999964714050293 0.768000125885009766 1.50199997425079346
0.0479999780654907227 0.768000125885009766 1.50199997425079346
-0.14999997615814209 0.773999929428100586 1.50199997425079346
-0.120000004768371582 0.773999929428100586 1.50199997425079346
-0.0959999561309814453 0.773999929428100586 1.50199997425079346
-0.0720000267028808594 0.773999929428100586 1.50199997425079346
-0.0479999780654907227 0.773999929428100586 1.50199997425079346
0.0900000333786010742 0.773999929428100586 1.50199997425079346
0.101999998092651367 0.773999929428100586 1.50199997425079346
-0.131999969482421875 0.779999971389770508 1.50199997425079346
-0.120000004768371582 0.779999971389770508 1.50199997425079346
-0.0959999561309814453 0.779999971389770508 1.50199997425079346
-0.0720000267028808594 0.779999971389770508 1.50199997425079346
-0.0479999780654907227 0.779999971389770508 1.50199997425079346
-0.0239999294281005859 0.779999971389770508 1.50199997425079346
0 0.779999971389770508 1.50199997425079346
0.0420000553131103516 0.779999971389770508 1.50199997425079346
0.0540000200271606445 0.779999971389770508 1.50199997425079346
0.0900000333786010742 0.779999971389770508 1.50199997425079346
0.101999998092651367 0.779999971389770508 1.50199997425079346
0.14999997615814209 0.779999971389770508 1.50199997425079346
0.167999982833862305 0.779999971389770508 1.50199997425079346
0.180000066757202148 0.78600001335144043 1.50199997425079346
0.228000044822692871 0.792000055313110352 1.50199997425079346
-0.75 -0.0540000200271606445 1.50800001621246338
-0.629999995231628418 -0.0360000133514404297 1.50800001621246338
-0.498000025749206543 -0.0360000133514404297 1.50800001621246338
0.911999940872192383 -0.0360000133514404297 1.50800001621246338
-0.371999979019165039 -0.0239999294281005859 1.50800001621246338
-0.29999995231628418 -0.0180000066757202148 1.50800001621246338
-0.210000038146972656 -0.00600004196166992188 1.50800001621246338
-0.167999982833862305 -0.00600004196166992188 1.50800001621246338
0.900000095367431641 0.0420000553131103516 1.50800001621246338
-0.324000000953674316 0.726000070571899414 1.50800001621246338
-0.161999940872192383 0.743999958038330078 1.50800001621246338
-0.353999972343444824 0.756000041961669922 1.50800001621246338
0.0540000200271606445 0.773999929428100586 1.50800001621246338
0.215999960899353027 0.792000055313110352 1.50800001621246338
0.822000026702880859 -0.0540000200271606445 1.5140000581741333
0.828000068664550781 -0.0540000200271606445 1.5140000581741333
-0.719999969005584717 -0.0479999780654907227 1.5140000581741333
0.822000026702880859 -0.0479999780654907227 1.5140000581741333
0.822000026702880859 -0.0239999294281005859 1.5140000581741333
-0.192000031471252441 -0.00600004196166992188 1.5140000581741333
0.822000026702880859 0 1.5140000581741333
0.875999927520751953 0.0360000133514404297 1.5140000581741333
0.822000026702880859 0.0659999847412109375 1.5140000581741333
0.822000026702880859 0.0780000686645507812 1.5140000581741333
-0.335999965667724609 0.726000070571899414 1.5140000581741333
-0.353999972343444824 0.743999958038330078 1.5140000581741333
-0.324000000953674316 0.792000055313110352 1.5140000581741333
0.851999998092651367 -0.0540000200271606445 1.51999998092651367
-0.726000010967254639 -0.0479999780654907227 1.51999998092651367
-0.294000029563903809 0.732000112533569336 1.51999998092651367
-0.251999974250793457 0.743999958038330078 1.51999998092651367
