ply
format ascii 1.0
element vertex 768
property float x
property float y
property float z
end_header
0.546000003814697266 0.126000046730041504 1.65199995040893555
0.552000045776367188 0.131999969482421875 1.65199995040893555
0.546000003814697266 0.162000060081481934 1.65199995040893555
0.552000045776367188 0.162000060081481934 1.65199995040893555
0.552000045776367188 0.18599998950958252 1.65199995040893555
0.546000003814697266 0.192000031471252441 1.65199995040893555
0.552000045776367188 0.203999996185302734 1.65199995040893555
0.564000129699707031 0.246000051498413086 1.65199995040893555
0.558000087738037109 0.251999974250793457 1.65199995040893555
0.564000129699707031 0.276000022888183594 1.65199995040893555
0.558000087738037109 0.30000007152557373 1.65199995040893555
0.558000087738037109 0.330000042915344238 1.65199995040893555
0.575999975204467773 0.335999965667724609 1.65199995040893555
0.558000087738037109 0.353999972343444824 1.65199995040893555
0.558000087738037109 0.378000020980834961 1.65199995040893555
0.558000087738037109 0.402000069618225098 1.65199995040893555
0.564000129699707031 0.437999963760375977 1.65199995040893555
0.564000129699707031 0.45000004768371582 1.65199995040893555
0.575999975204467773 0.473999977111816406 1.65199995040893555
0.564000129699707031 0.480000019073486328 1.65199995040893555
0.575999975204467773 0.480000019073486328 1.65199995040893555
0.564000129699707031 0.503999948501586914 1.65199995040893555
0.564000129699707031 0.528000116348266602 1.65199995040893555
0.575999975204467773 0.539999961853027344 1.65199995040893555
0.564000129699707031 0.552000045776367188 1.65199995040893555
0.569999933242797852 0.575999975204467773 1.65199995040893555
0.726000070571899414 -0.161999940872192383 1.65799999237060547
0.684000015258789062 -0.156000018119812012 1.65799999237060547
0.498000025749206543 -0.131999969482421875 1.65799999237060547
0.666000127792358398 -0.156000018119812012 1.66400003433227539
0.503999948501586914 -0.143999934196472168 1.66400003433227539
0.552000045776367188 0.120000004768371582 1.66400003433227539
0.575999975204467773 0.569999933242797852 1.66400003433227539
0.743999958038330078 -0.18599998950958252 1.66999995708465576
0.635999917984008789 -0.156000018119812012 1.66999995708465576
0.546000003814697266 0.0479999780654907227 1.66999995708465576
0.575999975204467773 0.305999994277954102 1.66999995708465576
0.575999975204467773 0.378000020980834961 1.66999995708465576
0.575999975204467773 0.575999975204467773 1.66999995708465576
0.575999975204467773 0.605999946594238281 1.66999995708465576
0.564000129699707031 0.648000001907348633 1.66999995708465576
0.737999916076660156 -0.18599998950958252 1.67599999904632568
0.75 -0.18599998950958252 1.67599999904632568
0.701999902725219727 -0.179999947547912598 1.67599999904632568
0.677999973297119141 -0.174000024795532227 1.67599999904632568
0.701999902725219727 -0.174000024795532227 1.67599999904632568
0.654000043869018555 -0.167999982833862305 1.67599999904632568
0.635999917984008789 -0.161999940872192383 1.67599999904632568
0.509999990463256836 -0.14999997615814209 1.67599999904632568
0.630000114440917969 -0.14999997615814209 1.67599999904632568
0.528000116348266602 -0.138000011444091797 1.67599999904632568
0.546000003814697266 0.0540000200271606445 1.67599999904632568
0.546000003814697266 0.0780000686645507812 1.67599999904632568
0.546000003814697266 0.101999998092651367 1.67599999904632568
0.552000045776367188 0.11399996280670166 1.67599999904632568
0.546000003814697266 0.144000053405761719 1.67599999904632568
0.558000087738037109 0.156000018119812012 1.67599999904632568
0.552000045776367188 0.180000066757202148 1.67599999904632568
0.558000087738037109 0.222000002861022949 1.67599999904632568
0.564000129699707031 0.228000044822692871 1.67599999904632568
0.558000087738037109 0.251999974250793457 1.67599999904632568
0.558000087738037109 0.276000022888183594 1.67599999904632568
0.558000087738037109 0.30000007152557373 1.67599999904632568
0.575999975204467773 0.305999994277954102 1.67599999904632568
0.558000087738037109 0.330000042915344238 1.67599999904632568
0.575999975204467773 0.330000042915344238 1.67599999904632568
0.564000129699707031 0.353999972343444824 1.67599999904632568
0.575999975204467773 0.353999972343444824 1.67599999904632568
0.569999933242797852 0.378000020980834961 1.67599999904632568
0.575999975204467773 0.378000020980834961 1.67599999904632568
0.564000129699707031 0.402000069618225098 1.67599999904632568
0.564000129699707031 0.425999999046325684 1.67599999904632568
0.575999975204467773 0.432000041007995605 1.67599999904632568
0.569999933242797852 0.455999970436096191 1.67599999904632568
0.575999975204467773 0.455999970436096191 1.67599999904632568
0.575999975204467773 0.480000019073486328 1.67599999904632568
0.569999933242797852 0.48600006103515625 1.67599999904632568
0.569999933242797852 0.516000032424926758 1.67599999904632568
0.569999933242797852 0.528000116348266602 1.67599999904632568
0.569999933242797852 0.564000129699707031 1.67599999904632568
0.569999933242797852 0.582000017166137695 1.67599999904632568
0.575999975204467773 0.605999946594238281 1.67599999904632568
0.569999933242797852 0.611999988555908203 1.67599999904632568
0.564000129699707031 0.648000001907348633 1.67599999904632568
0.677999973297119141 -0.179999947547912598 1.68200004100799561
0.618000030517578125 -0.156000018119812012 1.68200004100799561
0.611999988555908203 -0.14999997615814209 1.68200004100799561
0.552000045776367188 0.0900000333786010742 1.68200004100799561
0.552000045776367188 0.126000046730041504 1.68200004100799561
0.575999975204467773 0.52200007438659668 1.68200004100799561
0.575999975204467773 0.594000101089477539 1.68200004100799561
0.648000001907348633 -0.179999947547912598 1.68799996376037598
0.654000043869018555 -0.179999947547912598 1.68799996376037598
0.599999904632568359 -0.156000018119812012 1.68799996376037598
0.552000045776367188 0.0420000553131103516 1.68799996376037598
0.575999975204467773 0.282000064849853516 1.68799996376037598
0.575999975204467773 0.558000087738037109 1.68799996376037598
0.516000032424926758 -0.156000018119812012 1.6940000057220459
0.575999975204467773 0.228000044822692871 1.6940000057220459
0.575999975204467773 0.269999980926513672 1.6940000057220459
0.575999975204467773 0.402000069618225098 1.6940000057220459
0.575999975204467773 0.539999961853027344 1.6940000057220459
0.588000059127807617 -0.222000002861022949 1.70000004768371582
0.743999958038330078 -0.197999954223632812 1.70000004768371582
0.75 -0.197999954223632812 1.70000004768371582
0.641999959945678711 -0.179999947547912598 1.70000004768371582
0.630000114440917969 -0.174000024795532227 1.70000004768371582
0.594000101089477539 -0.167999982833862305 1.70000004768371582
0.605999946594238281 -0.167999982833862305 1.70000004768371582
0.516000032424926758 -0.156000018119812012 1.70000004768371582
0.588000059127807617 -0.14999997615814209 1.70000004768371582
0.611999988555908203 -0.14999997615814209 1.70000004768371582
0.552000045776367188 0.0420000553131103516 1.70000004768371582
0.546000003814697266 0.0600000619888305664 1.70000004768371582
0.552000045776367188 0.0720000267028808594 1.70000004768371582
0.546000003814697266 0.0780000686645507812 1.70000004768371582
0.552000045776367188 0.0780000686645507812 1.70000004768371582
0.552000045776367188 0.101999998092651367 1.70000004768371582
0.552000045776367188 0.126000046730041504 1.70000004768371582
0.558000087738037109 0.167999982833862305 1.70000004768371582
0.558000087738037109 0.180000066757202148 1.70000004768371582
0.564000129699707031 0.203999996185302734 1.70000004768371582
0.569999933242797852 0.233999967575073242 1.70000004768371582
0.569999933242797852 0.251999974250793457 1.70000004768371582
0.575999975204467773 0.276000022888183594 1.70000004768371582
0.564000129699707031 0.282000064849853516 1.70000004768371582
0.564000129699707031 0.312000036239624023 1.70000004768371582
0.575999975204467773 0.312000036239624023 1.70000004768371582
0.564000129699707031 0.330000042915344238 1.70000004768371582
0.575999975204467773 0.330000042915344238 1.70000004768371582
0.564000129699707031 0.353999972343444824 1.70000004768371582
0.575999975204467773 0.371999979019165039 1.70000004768371582
0.569999933242797852 0.378000020980834961 1.70000004768371582
0.582000017166137695 0.384000062942504883 1.70000004768371582
0.569999933242797852 0.402000069618225098 1.70000004768371582
0.575999975204467773 0.402000069618225098 1.70000004768371582
0.569999933242797852 0.425999999046325684 1.70000004768371582
0.569999933242797852 0.45000004768371582 1.70000004768371582
0.575999975204467773 0.468000054359436035 1.70000004768371582
0.575999975204467773 0.480000019073486328 1.70000004768371582
0.582000017166137695 0.516000032424926758 1.70000004768371582
0.569999933242797852 0.52200007438659668 1.70000004768371582
0.575999975204467773 0.528000116348266602 1.70000004768371582
0.575999975204467773 0.552000045776367188 1.70000004768371582
0.575999975204467773 0.575999975204467773 1.70000004768371582
0.575999975204467773 0.605999946594238281 1.70000004768371582
0.569999933242797852 0.611999988555908203 1.70000004768371582
0.575999975204467773 -0.228000044822692871 1.70599997043609619
0.605999946594238281 -0.228000044822692871 1.70599997043609619
0.605999946594238281 -0.222000002861022949 1.70599997043609619
0.594000101089477539 -0.197999954223632812 1.70599997043609619
0.71399998664855957 -0.192000031471252441 1.70599997043609619
0.575999975204467773 0.258000016212463379 1.70599997043609619
0.569999933242797852 -0.228000044822692871 1.71200001239776611
0.569999933242797852 -0.222000002861022949 1.71200001239776611
0.605999946594238281 -0.197999954223632812 1.71200001239776611
0.575999975204467773 0.233999967575073242 1.71200001239776611
0.552000045776367188 0.0180000066757202148 1.71800005435943604
0.575999975204467773 0.222000002861022949 1.71800005435943604
0.630000114440917969 -0.240000009536743164 1.72399997711181641
0.588000059127807617 -0.245999932289123535 1.73000001907348633
0.605999946594238281 -0.245999932289123535 1.73000001907348633
0.630000114440917969 -0.245999932289123535 1.73000001907348633
0.558000087738037109 -0.240000009536743164 1.73000001907348633
0.558000087738037109 -0.222000002861022949 1.73000001907348633
0.630000114440917969 -0.222000002861022949 1.73000001907348633
0.624000072479248047 -0.210000038146972656 1.73000001907348633
0.575999975204467773 -0.203999996185302734 1.73000001907348633
0.569999933242797852 -0.197999954223632812 1.73000001907348633
0.575999975204467773 -0.197999954223632812 1.73000001907348633
0.624000072479248047 -0.197999954223632812 1.73000001907348633
0.630000114440917969 -0.197999954223632812 1.73000001907348633
0.582000017166137695 -0.174000024795532227 1.73000001907348633
0.528000116348266602 -0.161999940872192383 1.73000001907348633
0.575999975204467773 -0.14999997615814209 1.73000001907348633
0.552000045776367188 0.0180000066757202148 1.73000001907348633
0.552000045776367188 0.0299999713897705078 1.73000001907348633
0.552000045776367188 0.0540000200271606445 1.73000001907348633
0.558000087738037109 0.0780000686645507812 1.73000001907348633
0.564000129699707031 0.108000040054321289 1.73000001907348633
0.564000129699707031 0.131999969482421875 1.73000001907348633
0.564000129699707031 0.156000018119812012 1.73000001907348633
0.564000129699707031 0.180000066757202148 1.73000001907348633
0.569999933242797852 0.210000038146972656 1.73000001907348633
0.575999975204467773 0.215999960899353027 1.73000001907348633
0.582000017166137695 0.228000044822692871 1.73000001907348633
0.575999975204467773 0.251999974250793457 1.73000001907348633
0.575999975204467773 0.276000022888183594 1.73000001907348633
0.569999933242797852 0.287999987602233887 1.73000001907348633
0.569999933242797852 0.30000007152557373 1.73000001907348633
0.582000017166137695 0.30000007152557373 1.73000001907348633
0.569999933242797852 0.330000042915344238 1.73000001907348633
0.582000017166137695 0.330000042915344238 1.73000001907348633
0.575999975204467773 0.353999972343444824 1.73000001907348633
0.569999933242797852 0.371999979019165039 1.73000001907348633
0.575999975204467773 0.378000020980834961 1.73000001907348633
0.582000017166137695 0.402000069618225098 1.73000001907348633
0.569999933242797852 0.407999992370605469 1.73000001907348633
0.569999933242797852 0.425999999046325684 1.73000001907348633
0.575999975204467773 0.425999999046325684 1.73000001907348633
0.575999975204467773 0.45000004768371582 1.73000001907348633
0.588000059127807617 0.480000019073486328 1.73000001907348633
0.582000017166137695 0.503999948501586914 1.73000001907348633
0.594000101089477539 0.528000116348266602 1.73000001907348633
0.582000017166137695 0.569999933242797852 1.73000001907348633
0.582000017166137695 0.582000017166137695 1.73000001907348633
0.582000017166137695 0.611999988555908203 1.73000001907348633
0.582000017166137695 0.630000114440917969 1.73000001907348633
0.605999946594238281 -0.251999974250793457 1.73600006103515625
0.630000114440917969 -0.251999974250793457 1.73600006103515625
0.546000003814697266 -0.233999967575073242 1.73600006103515625
0.552000045776367188 -0.161999940872192383 1.73600006103515625
0.533999919891357422 -0.14999997615814209 1.73600006103515625
0.605999946594238281 -0.143999934196472168 1.73600006103515625
0.575999975204467773 0.144000053405761719 1.73600006103515625
0.605999946594238281 -0.342000007629394531 1.74199998378753662
0.575999975204467773 -0.251999974250793457 1.74199998378753662
0.660000085830688477 -0.192000031471252441 1.74199998378753662
0.569999933242797852 -0.143999934196472168 1.74199998378753662
0.575999975204467773 0.198000073432922363 1.74199998378753662
0.599999904632568359 -0.353999972343444824 1.74800002574920654
0.605999946594238281 -0.353999972343444824 1.74800002574920654
0.599999904632568359 -0.348000049591064453 1.74800002574920654
0.605999946594238281 -0.324000000953674316 1.74800002574920654
0.654000043869018555 -0.26399993896484375 1.74800002574920654
0.546000003814697266 -0.251999974250793457 1.74800002574920654
0.552000045776367188 -0.251999974250793457 1.74800002574920654
0.654000043869018555 -0.245999932289123535 1.74800002574920654
0.546000003814697266 -0.222000002861022949 1.74800002574920654
0.575999975204467773 0.174000024795532227 1.74800002574920654
0.594000101089477539 -0.360000014305114746 1.75400006771087646
0.605999946594238281 -0.360000014305114746 1.75400006771087646
0.594000101089477539 -0.348000049591064453 1.75400006771087646
0.605999946594238281 -0.348000049591064453 1.75400006771087646
0.599999904632568359 -0.324000000953674316 1.75400006771087646
0.605999946594238281 -0.324000000953674316 1.75400006771087646
0.618000030517578125 -0.26399993896484375 1.75400006771087646
0.630000114440917969 -0.26399993896484375 1.75400006771087646
0.654000043869018555 -0.26399993896484375 1.75400006771087646
0.558000087738037109 -0.258000016212463379 1.75400006771087646
0.575999975204467773 -0.258000016212463379 1.75400006771087646
0.539999961853027344 -0.251999974250793457 1.75400006771087646
0.533999919891357422 -0.245999932289123535 1.75400006771087646
0.660000085830688477 -0.245999932289123535 1.75400006771087646
0.539999961853027344 -0.222000002861022949 1.75400006771087646
0.654000043869018555 -0.222000002861022949 1.75400006771087646
0.552000045776367188 -0.215999960899353027 1.75400006771087646
0.648000001907348633 -0.210000038146972656 1.75400006771087646
0.552000045776367188 -0.197999954223632812 1.75400006771087646
0.654000043869018555 -0.197999954223632812 1.75400006771087646
0.546000003814697266 -0.18599998950958252 1.75400006771087646
0.546000003814697266 -0.174000024795532227 1.75400006771087646
0.552000045776367188 -0.174000024795532227 1.75400006771087646
0.575999975204467773 -0.156000018119812012 1.75400006771087646
0.564000129699707031 -0.14999997615814209 1.75400006771087646
0.575999975204467773 -0.14999997615814209 1.75400006771087646
0.618000030517578125 -0.143999934196472168 1.75400006771087646
0.558000087738037109 -0.00600004196166992188 1.75400006771087646
0.558000087738037109 0 1.75400006771087646
0.558000087738037109 0.0299999713897705078 1.75400006771087646
0.558000087738037109 0.0600000619888305664 1.75400006771087646
0.564000129699707031 0.0780000686645507812 1.75400006771087646
0.564000129699707031 0.101999998092651367 1.75400006771087646
0.569999933242797852 0.144000053405761719 1.75400006771087646
0.564000129699707031 0.156000018119812012 1.75400006771087646
0.575999975204467773 0.156000018119812012 1.75400006771087646
0.569999933242797852 0.180000066757202148 1.75400006771087646
0.575999975204467773 0.203999996185302734 1.75400006771087646
0.582000017166137695 0.228000044822692871 1.75400006771087646
0.582000017166137695 0.251999974250793457 1.75400006771087646
0.588000059127807617 0.276000022888183594 1.75400006771087646
0.575999975204467773 0.305999994277954102 1.75400006771087646
0.582000017166137695 0.330000042915344238 1.75400006771087646
0.582000017166137695 0.360000014305114746 1.75400006771087646
0.575999975204467773 0.378000020980834961 1.75400006771087646
0.582000017166137695 0.402000069618225098 1.75400006771087646
0.575999975204467773 0.425999999046325684 1.75400006771087646
0.575999975204467773 0.45000004768371582 1.75400006771087646
0.582000017166137695 0.48600006103515625 1.75400006771087646
0.588000059127807617 0.516000032424926758 1.75400006771087646
0.582000017166137695 0.533999919891357422 1.75400006771087646
0.582000017166137695 0.552000045776367188 1.75400006771087646
0.588000059127807617 0.575999975204467773 1.75400006771087646
0.582000017166137695 0.605999946594238281 1.75400006771087646
0.605999946594238281 -0.29999995231628418 1.75999999046325684
0.491999983787536621 -0.179999947547912598 1.75999999046325684
0.503999948501586914 -0.179999947547912598 1.75999999046325684
0.575999975204467773 0.198000073432922363 1.75999999046325684
0.630000114440917969 -0.348000049591064453 1.76600003242492676
0.594000101089477539 -0.29999995231628418 1.76600003242492676
0.654000043869018555 -0.276000022888183594 1.76600003242492676
0.677999973297119141 -0.276000022888183594 1.76600003242492676
0.677999973297119141 -0.269999980926513672 1.76600003242492676
0.52200007438659668 -0.251999974250793457 1.76600003242492676
0.52200007438659668 -0.245999932289123535 1.76600003242492676
0.677999973297119141 -0.210000038146972656 1.76600003242492676
0.437999963760375977 -0.197999954223632812 1.76600003242492676
0.473999977111816406 -0.192000031471252441 1.76600003242492676
0.414000034332275391 -0.18599998950958252 1.76600003242492676
0.437999963760375977 -0.174000024795532227 1.76600003242492676
0.480000019073486328 -0.174000024795532227 1.76600003242492676
0.575999975204467773 0.144000053405761719 1.76600003242492676
0.630000114440917969 -0.360000014305114746 1.77199995517730713
0.630000114440917969 -0.312000036239624023 1.77199995517730713
0.630000114440917969 -0.276000022888183594 1.77199995517730713
0.677999973297119141 -0.245999932289123535 1.77199995517730713
0.52200007438659668 -0.222000002861022949 1.77199995517730713
0.389999985694885254 -0.18599998950958252 1.77199995517730713
0.396000027656555176 -0.174000024795532227 1.77199995517730713
0.402000069618225098 -0.174000024795532227 1.77199995517730713
0.45000004768371582 -0.174000024795532227 1.77199995517730713
0.503999948501586914 -0.174000024795532227 1.77199995517730713
0.575999975204467773 0.108000040054321289 1.77199995517730713
0.582000017166137695 -0.371999979019165039 1.77799999713897705
0.569999933242797852 -0.360000014305114746 1.77799999713897705
0.630000114440917969 -0.360000014305114746 1.77799999713897705
0.575999975204467773 -0.348000049591064453 1.77799999713897705
0.630000114440917969 -0.348000049591064453 1.77799999713897705
0.582000017166137695 -0.324000000953674316 1.77799999713897705
0.630000114440917969 -0.317999958992004395 1.77799999713897705
0.624000072479248047 -0.305999994277954102 1.77799999713897705
0.588000059127807617 -0.29999995231628418 1.77799999713897705
0.624000072479248047 -0.29999995231628418 1.77799999713897705
0.648000001907348633 -0.281999945640563965 1.77799999713897705
0.654000043869018555 -0.281999945640563965 1.77799999713897705
0.677999973297119141 -0.281999945640563965 1.77799999713897705
0.528000116348266602 -0.269999980926513672 1.77799999713897705
0.552000045776367188 -0.269999980926513672 1.77799999713897705
0.575999975204467773 -0.269999980926513672 1.77799999713897705
0.690000057220458984 -0.269999980926513672 1.77799999713897705
0.516000032424926758 -0.26399993896484375 1.77799999713897705
0.509999990463256836 -0.245999932289123535 1.77799999713897705
0.684000015258789062 -0.245999932289123535 1.77799999713897705
0.528000116348266602 -0.228000044822692871 1.77799999713897705
0.52200007438659668 -0.222000002861022949 1.77799999713897705
0.528000116348266602 -0.222000002861022949 1.77799999713897705
0.684000015258789062 -0.222000002861022949 1.77799999713897705
0.71399998664855957 -0.222000002861022949 1.77799999713897705
0.420000076293945312 -0.197999954223632812 1.77799999713897705
0.425999999046325684 -0.197999954223632812 1.77799999713897705
0.45000004768371582 -0.197999954223632812 1.77799999713897705
0.480000019073486328 -0.197999954223632812 1.77799999713897705
0.503999948501586914 -0.197999954223632812 1.77799999713897705
0.528000116348266602 -0.197999954223632812 1.77799999713897705
0.378000020980834961 -0.192000031471252441 1.77799999713897705
0.366000056266784668 -0.18599998950958252 1.77799999713897705
0.360000014305114746 -0.174000024795532227 1.77799999713897705
0.378000020980834961 -0.174000024795532227 1.77799999713897705
0.402000069618225098 -0.174000024795532227 1.77799999713897705
0.425999999046325684 -0.174000024795532227 1.77799999713897705
0.45000004768371582 -0.174000024795532227 1.77799999713897705
0.498000025749206543 -0.174000024795532227 1.77799999713897705
0.503999948501586914 -0.174000024795532227 1.77799999713897705
0.533999919891357422 -0.174000024795532227 1.77799999713897705
0.588000059127807617 -0.143999934196472168 1.77799999713897705
0.558000087738037109 -0.00600004196166992188 1.77799999713897705
0.558000087738037109 0 1.77799999713897705
0.552000045776367188 0.0299999713897705078 1.77799999713897705
0.558000087738037109 0.0540000200271606445 1.77799999713897705
0.564000129699707031 0.0780000686645507812 1.77799999713897705
0.569999933242797852 0.101999998092651367 1.77799999713897705
0.575999975204467773 0.108000040054321289 1.77799999713897705
0.569999933242797852 0.126000046730041504 1.77799999713897705
0.582000017166137695 0.144000053405761719 1.77799999713897705
0.582000017166137695 0.162000060081481934 1.77799999713897705
0.575999975204467773 0.180000066757202148 1.77799999713897705
0.575999975204467773 0.203999996185302734 1.77799999713897705
0.582000017166137695 0.228000044822692871 1.77799999713897705
0.588000059127807617 0.251999974250793457 1.77799999713897705
0.582000017166137695 0.276000022888183594 1.77799999713897705
0.588000059127807617 0.305999994277954102 1.77799999713897705
0.588000059127807617 0.330000042915344238 1.77799999713897705
0.588000059127807617 0.353999972343444824 1.77799999713897705
0.575999975204467773 0.378000020980834961 1.77799999713897705
0.582000017166137695 0.402000069618225098 1.77799999713897705
0.582000017166137695 0.425999999046325684 1.77799999713897705
0.582000017166137695 0.455999970436096191 1.77799999713897705
0.588000059127807617 0.480000019073486328 1.77799999713897705
0.588000059127807617 0.503999948501586914 1.77799999713897705
0.588000059127807617 0.533999919891357422 1.77799999713897705
0.588000059127807617 0.558000087738037109 1.77799999713897705
0.588000059127807617 0.582000017166137695 1.77799999713897705
0.624000072479248047 -0.365999937057495117 1.78400003910064697
0.569999933242797852 -0.348000049591064453 1.78400003910064697
0.528000116348266602 -0.276000022888183594 1.78400003910064697
0.348000049591064453 -0.18599998950958252 1.78400003910064697
0.324000000953674316 -0.179999947547912598 1.78400003910064697
0.305999994277954102 -0.174000024795532227 1.78400003910064697
0.330000042915344238 -0.174000024795532227 1.78400003910064697
0.569999933242797852 -0.324000000953674316 1.78999996185302734
0.701999902725219727 -0.294000029563903809 1.78999996185302734
0.516000032424926758 -0.276000022888183594 1.78999996185302734
0.552000045776367188 -0.276000022888183594 1.78999996185302734
0.701999902725219727 -0.269999980926513672 1.78999996185302734
0.498000025749206543 -0.26399993896484375 1.78999996185302734
0.701999902725219727 -0.233999967575073242 1.78999996185302734
0.287999987602233887 -0.179999947547912598 1.78999996185302734
0.276000022888183594 -0.174000024795532227 1.78999996185302734
0.269999980926513672 -0.167999982833862305 1.78999996185302734
0.378000020980834961 -0.810000002384185791 1.79600000381469727
0.558000087738037109 -0.378000020980834961 1.79600000381469727
0.575999975204467773 -0.378000020980834961 1.79600000381469727
0.498000025749206543 -0.245999932289123535 1.79600000381469727
0.726000070571899414 -0.240000009536743164 1.79600000381469727
0.402000069618225098 -0.203999996185302734 1.79600000381469727
0.425999999046325684 -0.203999996185302734 1.79600000381469727
0.240000009536743164 -0.174000024795532227 1.79600000381469727
0.564000129699707031 -0.0479999780654907227 1.79600000381469727
0.605999946594238281 0.294000029563903809 1.79600000381469727
0.342000007629394531 -0.810000002384185791 1.80200004577636719
0.353999972343444824 -0.810000002384185791 1.80200004577636719
0.378000020980834961 -0.810000002384185791 1.80200004577636719
0.228000044822692871 -0.804000020027160645 1.80200004577636719
0.251999974250793457 -0.804000020027160645 1.80200004577636719
0.233999967575073242 -0.797999978065490723 1.80200004577636719
0.384000062942504883 -0.797999978065490723 1.80200004577636719
0.546000003814697266 -0.378000020980834961 1.80200004577636719
0.552000045776367188 -0.378000020980834961 1.80200004577636719
0.575999975204467773 -0.378000020980834961 1.80200004577636719
0.546000003814697266 -0.371999979019165039 1.80200004577636719
0.552000045776367188 -0.371999979019165039 1.80200004577636719
0.605999946594238281 -0.371999979019165039 1.80200004577636719
0.552000045776367188 -0.348000049591064453 1.80200004577636719
0.564000129699707031 -0.324000000953674316 1.80200004577636719
0.630000114440917969 -0.317999958992004395 1.80200004577636719
0.575999975204467773 -0.305999994277954102 1.80200004577636719
0.690000057220458984 -0.305999994277954102 1.80200004577636719
0.701999902725219727 -0.305999994277954102 1.80200004577636719
0.569999933242797852 -0.29999995231628418 1.80200004577636719
0.575999975204467773 -0.29999995231628418 1.80200004577636719
0.635999917984008789 -0.29999995231628418 1.80200004577636719
0.677999973297119141 -0.29999995231628418 1.80200004577636719
0.71399998664855957 -0.29999995231628418 1.80200004577636719
0.654000043869018555 -0.294000029563903809 1.80200004577636719
0.503999948501586914 -0.281999945640563965 1.80200004577636719
0.528000116348266602 -0.281999945640563965 1.80200004577636719
0.491999983787536621 -0.276000022888183594 1.80200004577636719
0.48600006103515625 -0.269999980926513672 1.80200004577636719
0.71399998664855957 -0.269999980926513672 1.80200004577636719
0.491999983787536621 -0.245999932289123535 1.80200004577636719
0.71399998664855957 -0.245999932289123535 1.80200004577636719
0.726000070571899414 -0.245999932289123535 1.80200004577636719
0.503999948501586914 -0.240000009536743164 1.80200004577636719
0.491999983787536621 -0.222000002861022949 1.80200004577636719
0.503999948501586914 -0.222000002861022949 1.80200004577636719
0.71399998664855957 -0.222000002861022949 1.80200004577636719
0.378000020980834961 -0.203999996185302734 1.80200004577636719
0.402000069618225098 -0.203999996185302734 1.80200004577636719
0.348000049591064453 -0.197999954223632812 1.80200004577636719
0.353999972343444824 -0.197999954223632812 1.80200004577636719
0.402000069618225098 -0.197999954223632812 1.80200004577636719
0.425999999046325684 -0.197999954223632812 1.80200004577636719
0.491999983787536621 -0.197999954223632812 1.80200004577636719
0.503999948501586914 -0.197999954223632812 1.80200004577636719
0.305999994277954102 -0.192000031471252441 1.80200004577636719
0.468000054359436035 -0.192000031471252441 1.80200004577636719
0.282000064849853516 -0.18599998950958252 1.80200004577636719
0.552000045776367188 -0.18599998950958252 1.80200004577636719
0.258000016212463379 -0.179999947547912598 1.80200004577636719
0.228000044822692871 -0.174000024795532227 1.80200004577636719
0.251999974250793457 -0.174000024795532227 1.80200004577636719
0.276000022888183594 -0.174000024795532227 1.80200004577636719
0.533999919891357422 -0.174000024795532227 1.80200004577636719
0.222000002861022949 -0.167999982833862305 1.80200004577636719
0.491999983787536621 -0.167999982833862305 1.80200004577636719
0.503999948501586914 -0.167999982833862305 1.80200004577636719
0.462000012397766113 -0.161999940872192383 1.80200004577636719
0.30000007152557373 -0.156000018119812012 1.80200004577636719
0.330000042915344238 -0.156000018119812012 1.80200004577636719
0.353999972343444824 -0.156000018119812012 1.80200004577636719
0.378000020980834961 -0.156000018119812012 1.80200004577636719
0.402000069618225098 -0.156000018119812012 1.80200004577636719
0.425999999046325684 -0.156000018119812012 1.80200004577636719
0.222000002861022949 -0.14999997615814209 1.80200004577636719
0.228000044822692871 -0.14999997615814209 1.80200004577636719
0.251999974250793457 -0.14999997615814209 1.80200004577636719
0.276000022888183594 -0.14999997615814209 1.80200004577636719
0.30000007152557373 -0.14999997615814209 1.80200004577636719
0.353999972343444824 -0.14999997615814209 1.80200004577636719
0.491999983787536621 -0.14999997615814209 1.80200004577636719
0.528000116348266602 -0.14999997615814209 1.80200004577636719
0.558000087738037109 -0.0959999561309814453 1.80200004577636719
0.564000129699707031 -0.0720000267028808594 1.80200004577636719
0.564000129699707031 -0.0479999780654907227 1.80200004577636719
0.564000129699707031 -0.0180000066757202148 1.80200004577636719
0.564000129699707031 0.0240000486373901367 1.80200004577636719
0.564000129699707031 0.0299999713897705078 1.80200004577636719
0.564000129699707031 0.0540000200271606445 1.80200004577636719
0.569999933242797852 0.0839999914169311523 1.80200004577636719
0.575999975204467773 0.0959999561309814453 1.80200004577636719
0.569999933242797852 0.101999998092651367 1.80200004577636719
0.575999975204467773 0.101999998092651367 1.80200004577636719
0.575999975204467773 0.126000046730041504 1.80200004577636719
0.582000017166137695 0.162000060081481934 1.80200004577636719
0.582000017166137695 0.180000066757202148 1.80200004577636719
0.582000017166137695 0.203999996185302734 1.80200004577636719
0.594000101089477539 0.228000044822692871 1.80200004577636719
0.588000059127807617 0.251999974250793457 1.80200004577636719
0.594000101089477539 0.276000022888183594 1.80200004577636719
0.605999946594238281 0.294000029563903809 1.80200004577636719
0.594000101089477539 0.30000007152557373 1.80200004577636719
0.605999946594238281 0.30000007152557373 1.80200004577636719
0.594000101089477539 0.330000042915344238 1.80200004577636719
0.599999904632568359 0.353999972343444824 1.80200004577636719
0.582000017166137695 0.378000020980834961 1.80200004577636719
0.582000017166137695 0.402000069618225098 1.80200004577636719
0.582000017166137695 0.425999999046325684 1.80200004577636719
0.588000059127807617 0.45000004768371582 1.80200004577636719
0.588000059127807617 0.480000019073486328 1.80200004577636719
0.594000101089477539 0.503999948501586914 1.80200004577636719
0.594000101089477539 0.528000116348266602 1.80200004577636719
0.594000101089477539 0.552000045776367188 1.80200004577636719
0.407999992370605469 -0.815999984741210938 1.80799996852874756
0.425999999046325684 -0.815999984741210938 1.80799996852874756
0.287999987602233887 -0.810000002384185791 1.80799996852874756
0.30000007152557373 -0.810000002384185791 1.80799996852874756
0.198000073432922363 -0.804000020027160645 1.80799996852874756
0.203999996185302734 -0.804000020027160645 1.80799996852874756
0.198000073432922363 -0.797999978065490723 1.80799996852874756
0.203999996185302734 -0.797999978065490723 1.80799996852874756
0.348000049591064453 -0.797999978065490723 1.80799996852874756
0.360000014305114746 -0.797999978065490723 1.80799996852874756
0.402000069618225098 -0.797999978065490723 1.80799996852874756
0.726000070571899414 -0.29999995231628418 1.80799996852874756
0.726000070571899414 -0.269999980926513672 1.80799996852874756
0.366000056266784668 -0.203999996185302734 1.80799996852874756
0.425999999046325684 -0.203999996185302734 1.80799996852874756
0.233999967575073242 -0.179999947547912598 1.80799996852874756
0.198000073432922363 -0.167999982833862305 1.80799996852874756
0.14999997615814209 -0.156000018119812012 1.80799996852874756
0.156000018119812012 -0.156000018119812012 1.80799996852874756
0.14999997615814209 -0.14999997615814209 1.80799996852874756
0.156000018119812012 -0.14999997615814209 1.80799996852874756
0.180000066757202148 -0.14999997615814209 1.80799996852874756
0.330000042915344238 -0.14999997615814209 1.80799996852874756
0.378000020980834961 -0.14999997615814209 1.80799996852874756
0.402000069618225098 -0.14999997615814209 1.80799996852874756
0.425999999046325684 -0.14999997615814209 1.80799996852874756
0.45000004768371582 -0.14999997615814209 1.80799996852874756
0.503999948501586914 -0.14999997615814209 1.80799996852874756
0.552000045776367188 -0.138000011444091797 1.80799996852874756
0.251999974250793457 -0.797999978065490723 1.81400001049041748
0.30000007152557373 -0.797999978065490723 1.81400001049041748
0.425999999046325684 -0.797999978065490723 1.81400001049041748
0.539999961853027344 -0.348000049591064453 1.81400001049041748
0.666000127792358398 -0.305999994277954102 1.81400001049041748
0.473999977111816406 -0.276000022888183594 1.81400001049041748
0.473999977111816406 -0.269999980926513672 1.81400001049041748
0.342000007629394531 -0.203999996185302734 1.81400001049041748
0.222000002861022949 -0.179999947547912598 1.81400001049041748
0.120000004768371582 -0.161999940872192383 1.81400001049041748
0.0959999561309814453 -0.14999997615814209 1.81400001049041748
0.101999998092651367 -0.14999997615814209 1.81400001049041748
0.564000129699707031 -0.101999998092651367 1.81400001049041748
0.45000004768371582 -0.821999967098236084 1.8200000524520874
0.162000060081481934 -0.804000020027160645 1.8200000524520874
0.156000018119812012 -0.797999978065490723 1.8200000524520874
0.276000022888183594 -0.797999978065490723 1.8200000524520874
0.546000003814697266 -0.324000000953674316 1.8200000524520874
0.834000110626220703 -0.26399993896484375 1.8200000524520874
0.317999958992004395 -0.203999996185302734 1.8200000524520874
0.0780000686645507812 -0.156000018119812012 1.8200000524520874
0.0659999847412109375 -0.14999997615814209 1.8200000524520874
0.0479999780654907227 -0.143999934196472168 1.8200000524520874
0.503999948501586914 -0.120000004768371582 1.8200000524520874
0.528000116348266602 -0.120000004768371582 1.8200000524520874
0.605999946594238281 0.366000056266784668 1.8200000524520874
0.462000012397766113 -0.828000009059906006 1.82599997520446777
0.480000019073486328 -0.828000009059906006 1.82599997520446777
0.455999970436096191 -0.821999967098236084 1.82599997520446777
0.480000019073486328 -0.821999967098236084 1.82599997520446777
0.167999982833862305 -0.810000002384185791 1.82599997520446777
0.180000066757202148 -0.810000002384185791 1.82599997520446777
0.14999997615814209 -0.804000020027160645 1.82599997520446777
0.264000058174133301 -0.804000020027160645 1.82599997520446777
0.276000022888183594 -0.804000020027160645 1.82599997520446777
0.432000041007995605 -0.804000020027160645 1.82599997520446777
0.131999969482421875 -0.797999978065490723 1.82599997520446777
0.156000018119812012 -0.797999978065490723 1.82599997520446777
0.222000002861022949 -0.797999978065490723 1.82599997520446777
0.240000009536743164 -0.797999978065490723 1.82599997520446777
0.251999974250793457 -0.797999978065490723 1.82599997520446777
0.276000022888183594 -0.797999978065490723 1.82599997520446777
0.30000007152557373 -0.797999978065490723 1.82599997520446777
0.389999985694885254 -0.797999978065490723 1.82599997520446777
0.0839999914169311523 -0.791999995708465576 1.82599997520446777
0.120000004768371582 -0.791999995708465576 1.82599997520446777
0.180000066757202148 -0.791999995708465576 1.82599997520446777
0.330000042915344238 -0.791999995708465576 1.82599997520446777
0.353999972343444824 -0.791999995708465576 1.82599997520446777
0.528000116348266602 -0.389999985694885254 1.82599997520446777
0.558000087738037109 -0.389999985694885254 1.82599997520446777
0.52200007438659668 -0.383999943733215332 1.82599997520446777
0.582000017166137695 -0.383999943733215332 1.82599997520446777
0.52200007438659668 -0.371999979019165039 1.82599997520446777
0.528000116348266602 -0.371999979019165039 1.82599997520446777
0.528000116348266602 -0.348000049591064453 1.82599997520446777
0.539999961853027344 -0.324000000953674316 1.82599997520446777
0.552000045776367188 -0.317999958992004395 1.82599997520446777
0.641999959945678711 -0.317999958992004395 1.82599997520446777
0.654000043869018555 -0.312000036239624023 1.82599997520446777
0.677999973297119141 -0.312000036239624023 1.82599997520446777
0.707999944686889648 -0.312000036239624023 1.82599997520446777
0.546000003814697266 -0.29999995231628418 1.82599997520446777
0.552000045776367188 -0.29999995231628418 1.82599997520446777
0.732000112533569336 -0.29999995231628418 1.82599997520446777
0.491999983787536621 -0.294000029563903809 1.82599997520446777
0.52200007438659668 -0.294000029563903809 1.82599997520446777
0.473999977111816406 -0.287999987602233887 1.82599997520446777
0.462000012397766113 -0.269999980926513672 1.82599997520446777
0.743999958038330078 -0.26399993896484375 1.82599997520446777
0.828000068664550781 -0.26399993896484375 1.82599997520446777
0.473999977111816406 -0.245999932289123535 1.82599997520446777
0.480000019073486328 -0.245999932289123535 1.82599997520446777
0.473999977111816406 -0.222000002861022949 1.82599997520446777
0.480000019073486328 -0.222000002861022949 1.82599997520446777
0.360000014305114746 -0.215999960899353027 1.82599997520446777
0.378000020980834961 -0.215999960899353027 1.82599997520446777
0.402000069618225098 -0.215999960899353027 1.82599997520446777
0.317999958992004395 -0.210000038146972656 1.82599997520446777
0.335999965667724609 -0.210000038146972656 1.82599997520446777
0.287999987602233887 -0.203999996185302734 1.82599997520446777
0.269999980926513672 -0.197999954223632812 1.82599997520446777
0.276000022888183594 -0.197999954223632812 1.82599997520446777
0.30000007152557373 -0.197999954223632812 1.82599997520446777
0.437999963760375977 -0.197999954223632812 1.82599997520446777
0.473999977111816406 -0.197999954223632812 1.82599997520446777
0.480000019073486328 -0.197999954223632812 1.82599997520446777
0.246000051498413086 -0.192000031471252441 1.82599997520446777
0.222000002861022949 -0.18599998950958252 1.82599997520446777
0.192000031471252441 -0.179999947547912598 1.82599997520446777
0.131999969482421875 -0.174000024795532227 1.82599997520446777
0.156000018119812012 -0.174000024795532227 1.82599997520446777
0.180000066757202148 -0.174000024795532227 1.82599997520446777
0.101999998092651367 -0.167999982833862305 1.82599997520446777
0.0839999914169311523 -0.161999940872192383 1.82599997520446777
0.0479999780654907227 -0.156000018119812012 1.82599997520446777
0.0540000200271606445 -0.156000018119812012 1.82599997520446777
0.0299999713897705078 -0.14999997615814209 1.82599997520446777
0.0540000200271606445 -0.14999997615814209 1.82599997520446777
0.0780000686645507812 -0.14999997615814209 1.82599997520446777
-0.0299999713897705078 -0.143999934196472168 1.82599997520446777
-0.0239999294281005859 -0.143999934196472168 1.82599997520446777
0 -0.143999934196472168 1.82599997520446777
0.305999994277954102 -0.143999934196472168 1.82599997520446777
0.330000042915344238 -0.143999934196472168 1.82599997520446777
0.353999972343444824 -0.143999934196472168 1.82599997520446777
0.378000020980834961 -0.143999934196472168 1.82599997520446777
0.402000069618225098 -0.143999934196472168 1.82599997520446777
0.425999999046325684 -0.143999934196472168 1.82599997520446777
0.101999998092651367 -0.138000011444091797 1.82599997520446777
0.126000046730041504 -0.138000011444091797 1.82599997520446777
0.156000018119812012 -0.138000011444091797 1.82599997520446777
0.180000066757202148 -0.138000011444091797 1.82599997520446777
0.203999996185302734 -0.138000011444091797 1.82599997520446777
0.228000044822692871 -0.138000011444091797 1.82599997520446777
0.251999974250793457 -0.138000011444091797 1.82599997520446777
0.276000022888183594 -0.138000011444091797 1.82599997520446777
0.45000004768371582 -0.138000011444091797 1.82599997520446777
0.552000045776367188 -0.138000011444091797 1.82599997520446777
0.480000019073486328 -0.131999969482421875 1.82599997520446777
0.503999948501586914 -0.126000046730041504 1.82599997520446777
0.462000012397766113 -0.120000004768371582 1.82599997520446777
0.480000019073486328 -0.120000004768371582 1.82599997520446777
0.503999948501586914 -0.120000004768371582 1.82599997520446777
0.528000116348266602 -0.120000004768371582 1.82599997520446777
0.552000045776367188 -0.11399996280670166 1.82599997520446777
0.546000003814697266 -0.0959999561309814453 1.82599997520446777
0.552000045776367188 -0.0959999561309814453 1.82599997520446777
0.558000087738037109 -0.0720000267028808594 1.82599997520446777
0.558000087738037109 -0.0479999780654907227 1.82599997520446777
0.564000129699707031 -0.0239999294281005859 1.82599997520446777
0.575999975204467773 -0.0180000066757202148 1.82599997520446777
0.564000129699707031 0 1.82599997520446777
0.569999933242797852 0.0299999713897705078 1.82599997520446777
0.569999933242797852 0.0540000200271606445 1.82599997520446777
0.575999975204467773 0.0600000619888305664 1.82599997520446777
0.569999933242797852 0.0780000686645507812 1.82599997520446777
0.575999975204467773 0.0959999561309814453 1.82599997520446777
0.575999975204467773 0.101999998092651367 1.82599997520446777
0.582000017166137695 0.126000046730041504 1.82599997520446777
0.582000017166137695 0.156000018119812012 1.82599997520446777
0.588000059127807617 0.18599998950958252 1.82599997520446777
0.588000059127807617 0.203999996185302734 1.82599997520446777
0.588000059127807617 0.228000044822692871 1.82599997520446777
0.594000101089477539 0.258000016212463379 1.82599997520446777
0.594000101089477539 0.276000022888183594 1.82599997520446777
0.599999904632568359 0.30000007152557373 1.82599997520446777
0.594000101089477539 0.330000042915344238 1.82599997520446777
0.599999904632568359 0.360000014305114746 1.82599997520446777
0.605999946594238281 0.366000056266784668 1.82599997520446777
0.582000017166137695 0.378000020980834961 1.82599997520446777
0.588000059127807617 0.402000069618225098 1.82599997520446777
0.588000059127807617 0.425999999046325684 1.82599997520446777
0.599999904632568359 0.45000004768371582 1.82599997520446777
0.599999904632568359 0.480000019073486328 1.82599997520446777
0.605999946594238281 0.480000019073486328 1.82599997520446777
0.599999904632568359 0.503999948501586914 1.82599997520446777
0.599999904632568359 0.533999919891357422 1.82599997520446777
0.594000101089477539 0.558000087738037109 1.82599997520446777
0.0720000267028808594 -0.804000020027160645 1.8320000171661377
0.0780000686645507812 -0.804000020027160645 1.8320000171661377
0.11399996280670166 -0.804000020027160645 1.8320000171661377
0.402000069618225098 -0.804000020027160645 1.8320000171661377
0.0720000267028808594 -0.797999978065490723 1.8320000171661377
0.947999954223632812 -0.546000003814697266 1.8320000171661377
0.911999940872192383 -0.432000041007995605 1.8320000171661377
0.726000070571899414 -0.305999994277954102 1.8320000171661377
0.864000082015991211 -0.276000022888183594 1.8320000171661377
0.75 -0.26399993896484375 1.8320000171661377
0.167999982833862305 -0.179999947547912598 1.8320000171661377
0.011999964714050293 -0.156000018119812012 1.8320000171661377
-0.0540000200271606445 -0.143999934196472168 1.8320000171661377
0.378000020980834961 -0.120000004768371582 1.8320000171661377
0.407999992370605469 -0.120000004768371582 1.8320000171661377
0.425999999046325684 -0.120000004768371582 1.8320000171661377
0.575999975204467773 0.0479999780654907227 1.8320000171661377
0.605999946594238281 0.473999977111816406 1.8320000171661377
0.0479999780654907227 -0.804000020027160645 1.83800005912780762
0.389999985694885254 -0.804000020027160645 1.83800005912780762
0.0479999780654907227 -0.791999995708465576 1.83800005912780762
0.203999996185302734 -0.773999989032745361 1.83800005912780762
0.966000080108642578 -0.582000017166137695 1.83800005912780762
0.953999996185302734 -0.56400001049041748 1.83800005912780762
0.917999982833862305 -0.473999977111816406 1.83800005912780762
0.52200007438659668 -0.348000049591064453 1.83800005912780762
0.52200007438659668 -0.317999958992004395 1.83800005912780762
0.881999969482421875 -0.29999995231628418 1.83800005912780762
0.396000027656555176 -0.197999954223632812 1.83800005912780762
0.402000069618225098 -0.197999954223632812 1.83800005912780762
-0.011999964714050293 -0.156000018119812012 1.83800005912780762
-0.0839999914169311523 -0.143999934196472168 1.83800005912780762
-0.101999998092651367 -0.126000046730041504 1.83800005912780762
-0.0779999494552612305 -0.120000004768371582 1.83800005912780762
-0.0720000267028808594 -0.120000004768371582 1.83800005912780762
-0.0479999780654907227 -0.120000004768371582 1.83800005912780762
-0.0239999294281005859 -0.120000004768371582 1.83800005912780762
0.317999958992004395 -0.120000004768371582 1.83800005912780762
0.330000042915344238 -0.120000004768371582 1.83800005912780762
0.353999972343444824 -0.120000004768371582 1.83800005912780762
0.480000019073486328 -0.0959999561309814453 1.83800005912780762
0.503999948501586914 -0.0959999561309814453 1.83800005912780762
0.575999975204467773 -0.0419999361038208008 1.83800005912780762
0.575999975204467773 0.0180000066757202148 1.83800005912780762
0.605999946594238281 0.528000116348266602 1.83800005912780762
0.641999959945678711 0.71399998664855957 1.83800005912780762
-0.011999964714050293 -0.804000020027160645 1.84399998188018799
0 -0.804000020027160645 1.84399998188018799
0.0240000486373901367 -0.797999978065490723 1.84399998188018799
0.0839999914169311523 -0.773999989032745361 1.84399998188018799
0.167999982833862305 -0.773999989032745361 1.84399998188018799
0.180000066757202148 -0.773999989032745361 1.84399998188018799
0.233999967575073242 -0.773999989032745361 1.84399998188018799
0.947999954223632812 -0.557999968528747559 1.84399998188018799
0.953999996185302734 -0.546000003814697266 1.84399998188018799
0.941999912261962891 -0.522000014781951904 1.84399998188018799
0.924000024795532227 -0.485999941825866699 1.84399998188018799
0.894000053405761719 -0.414000034332275391 1.84399998188018799
0.900000095367431641 -0.414000034332275391 1.84399998188018799
0.52200007438659668 -0.401999950408935547 1.84399998188018799
0.864000082015991211 -0.330000042915344238 1.84399998188018799
0.858000040054321289 -0.324000000953674316 1.84399998188018799
0.491999983787536621 -0.305999994277954102 1.84399998188018799
0.881999969482421875 -0.305999994277954102 1.84399998188018799
0.444000005722045898 -0.287999987602233887 1.84399998188018799
0.75 -0.276000022888183594 1.84399998188018799
0.834000110626220703 -0.276000022888183594 1.84399998188018799
0.444000005722045898 -0.269999980926513672 1.84399998188018799
