ply
format ascii 1.0
element vertex 768
property float x
property float y
property float z
end_header
-0.324000000953674316 0.330000042915344238 2.32999992370605469
-1.16400003433227539 0.246000051498413086 2.33599996566772461
-1.11599993705749512 0.269999980926513672 2.33599996566772461
-1.07400000095367432 0.269999980926513672 2.33599996566772461
-0.75 0.294000029563903809 2.33599996566772461
-0.71399998664855957 0.294000029563903809 2.33599996566772461
-0.695999979972839355 0.294000029563903809 2.34200000762939453
-0.659999966621398926 0.294000029563903809 2.34200000762939453
-1.04999995231628418 0.269999980926513672 2.34800004959106445
-0.648000001907348633 0.294000029563903809 2.34800004959106445
-1.16400003433227539 0.240000009536743164 2.35400009155273438
-1.14600002765655518 0.246000051498413086 2.35400009155273438
-1.12199997901916504 0.246000051498413086 2.35400009155273438
-1.15799999237060547 0.251999974250793457 2.35400009155273438
-1.14600002765655518 0.251999974250793457 2.35400009155273438
-1.12199997901916504 0.251999974250793457 2.35400009155273438
-1.09800004959106445 0.258000016212463379 2.35400009155273438
-1.07400000095367432 0.264000058174133301 2.35400009155273438
-1.04999995231628418 0.269999980926513672 2.35400009155273438
-1.01999998092651367 0.269999980926513672 2.35400009155273438
-0.990000009536743164 0.269999980926513672 2.35400009155273438
-0.959999978542327881 0.269999980926513672 2.35400009155273438
-0.941999971866607666 0.269999980926513672 2.35400009155273438
-0.893999993801116943 0.269999980926513672 2.35400009155273438
-1.03799998760223389 0.276000022888183594 2.35400009155273438
-1.01999998092651367 0.276000022888183594 2.35400009155273438
-0.995999991893768311 0.276000022888183594 2.35400009155273438
-0.972000002861022949 0.276000022888183594 2.35400009155273438
-0.948000013828277588 0.276000022888183594 2.35400009155273438
-0.924000024795532227 0.276000022888183594 2.35400009155273438
-0.89999997615814209 0.276000022888183594 2.35400009155273438
-0.870000004768371582 0.276000022888183594 2.35400009155273438
-0.846000015735626221 0.276000022888183594 2.35400009155273438
-0.821999967098236084 0.282000064849853516 2.35400009155273438
-0.797999978065490723 0.282000064849853516 2.35400009155273438
-0.773999989032745361 0.282000064849853516 2.35400009155273438
-0.744000017642974854 0.282000064849853516 2.35400009155273438
-0.719999969005584717 0.287999987602233887 2.35400009155273438
-0.695999979972839355 0.287999987602233887 2.35400009155273438
-0.671999990940093994 0.287999987602233887 2.35400009155273438
-0.648000001907348633 0.287999987602233887 2.35400009155273438
-0.624000012874603271 0.294000029563903809 2.35400009155273438
-0.593999981880187988 0.294000029563903809 2.35400009155273438
-0.569999992847442627 0.294000029563903809 2.35400009155273438
-0.61799997091293335 0.30000007152557373 2.35400009155273438
-0.599999964237213135 0.30000007152557373 2.35400009155273438
-0.569999992847442627 0.30000007152557373 2.35400009155273438
-0.546000003814697266 0.30000007152557373 2.35400009155273438
-0.522000014781951904 0.30000007152557373 2.35400009155273438
-0.498000025749206543 0.30000007152557373 2.35400009155273438
-0.473999977111816406 0.30000007152557373 2.35400009155273438
-0.444000005722045898 0.305999994277954102 2.35400009155273438
-0.414000034332275391 0.305999994277954102 2.35400009155273438
-0.324000000953674316 0.305999994277954102 2.35400009155273438
-0.29999995231628418 0.305999994277954102 2.35400009155273438
-0.396000027656555176 0.312000036239624023 2.35400009155273438
-0.371999979019165039 0.312000036239624023 2.35400009155273438
-0.348000049591064453 0.312000036239624023 2.35400009155273438
-0.924000024795532227 0.269999980926513672 2.3600001335144043
-0.546000003814697266 0.294000029563903809 2.3600001335144043
-0.522000014781951904 0.294000029563903809 2.3600001335144043
-0.870000004768371582 0.269999980926513672 2.36600017547607422
-0.846000015735626221 0.269999980926513672 2.36600017547607422
-0.498000025749206543 0.294000029563903809 2.36600017547607422
-0.473999977111816406 0.294000029563903809 2.36600017547607422
-0.821999967098236084 0.269999980926513672 2.37199997901916504
-0.779999971389770508 0.269999980926513672 2.37199997901916504
-0.744000017642974854 0.269999980926513672 2.37199997901916504
-0.444000005722045898 0.294000029563903809 2.37199997901916504
-0.407999992370605469 0.294000029563903809 2.37199997901916504
-0.317999958992004395 0.294000029563903809 2.37199997901916504
-1.12800002098083496 0.240000009536743164 2.37800002098083496
-1.12199997901916504 0.240000009536743164 2.37800002098083496
-1.12199997901916504 0.251999974250793457 2.37800002098083496
-1.09800004959106445 0.251999974250793457 2.37800002098083496
-1.07400000095367432 0.251999974250793457 2.37800002098083496
-1.04999995231628418 0.251999974250793457 2.37800002098083496
-1.16999995708465576 0.258000016212463379 2.37800002098083496
-1.01999998092651367 0.258000016212463379 2.37800002098083496
-0.995999991893768311 0.258000016212463379 2.37800002098083496
-0.972000002861022949 0.258000016212463379 2.37800002098083496
-0.93599998950958252 0.258000016212463379 2.37800002098083496
-0.924000024795532227 0.258000016212463379 2.37800002098083496
-0.89999997615814209 0.258000016212463379 2.37800002098083496
-0.870000004768371582 0.258000016212463379 2.37800002098083496
-0.846000015735626221 0.264000058174133301 2.37800002098083496
-0.821999967098236084 0.264000058174133301 2.37800002098083496
-0.797999978065490723 0.264000058174133301 2.37800002098083496
-0.773999989032745361 0.269999980926513672 2.37800002098083496
-0.75 0.269999980926513672 2.37800002098083496
-0.719999969005584717 0.269999980926513672 2.37800002098083496
-0.695999979972839355 0.269999980926513672 2.37800002098083496
-0.761999964714050293 0.276000022888183594 2.37800002098083496
-0.75 0.276000022888183594 2.37800002098083496
-0.719999969005584717 0.276000022888183594 2.37800002098083496
-0.695999979972839355 0.276000022888183594 2.37800002098083496
-0.671999990940093994 0.276000022888183594 2.37800002098083496
-0.648000001907348633 0.276000022888183594 2.37800002098083496
-0.624000012874603271 0.276000022888183594 2.37800002098083496
-0.599999964237213135 0.282000064849853516 2.37800002098083496
-0.569999992847442627 0.282000064849853516 2.37800002098083496
-0.546000003814697266 0.282000064849853516 2.37800002098083496
-0.522000014781951904 0.287999987602233887 2.37800002098083496
-0.498000025749206543 0.287999987602233887 2.37800002098083496
-0.473999977111816406 0.287999987602233887 2.37800002098083496
-0.444000005722045898 0.287999987602233887 2.37800002098083496
-0.419999957084655762 0.294000029563903809 2.37800002098083496
-0.396000027656555176 0.294000029563903809 2.37800002098083496
-0.371999979019165039 0.294000029563903809 2.37800002098083496
-0.342000007629394531 0.294000029563903809 2.37800002098083496
-0.324000000953674316 0.294000029563903809 2.37800002098083496
-0.455999970436096191 0.30000007152557373 2.37800002098083496
-0.444000005722045898 0.30000007152557373 2.37800002098083496
-0.419999957084655762 0.30000007152557373 2.37800002098083496
-0.396000027656555176 0.30000007152557373 2.37800002098083496
-0.371999979019165039 0.30000007152557373 2.37800002098083496
-0.348000049591064453 0.30000007152557373 2.37800002098083496
-0.324000000953674316 0.30000007152557373 2.37800002098083496
-1.09200000762939453 0.246000051498413086 2.38400006294250488
-1.07400000095367432 0.246000051498413086 2.38400006294250488
-1.04999995231628418 0.246000051498413086 2.38400006294250488
-0.671999990940093994 0.269999980926513672 2.38400006294250488
-0.324000000953674316 0.330000042915344238 2.38400006294250488
-1.01399993896484375 0.246000051498413086 2.3899998664855957
-0.648000001907348633 0.269999980926513672 2.3899998664855957
-0.29999995231628418 0.30000007152557373 2.3899998664855957
-0.330000042915344238 0.335999965667724609 2.3899998664855957
-1.16999995708465576 0.203999996185302734 2.39599990844726562
-0.995999991893768311 0.246000051498413086 2.39599990844726562
-0.624000012874603271 0.269999980926513672 2.39599990844726562
-0.593999981880187988 0.269999980926513672 2.39599990844726562
-0.557999968528747559 0.269999980926513672 2.39599990844726562
-0.533999979496002197 0.269999980926513672 2.39599990844726562
-0.522000014781951904 0.269999980926513672 2.39599990844726562
-0.287999987602233887 0.269999980926513672 2.39599990844726562
-0.995999991893768311 0.276000022888183594 2.39599990844726562
-0.29999995231628418 0.294000029563903809 2.39599990844726562
-1.15799999237060547 0.198000073432922363 2.40199995040893555
-1.16400003433227539 0.203999996185302734 2.40199995040893555
-1.14600002765655518 0.222000002861022949 2.40199995040893555
-1.14600002765655518 0.228000044822692871 2.40199995040893555
-1.12199997901916504 0.228000044822692871 2.40199995040893555
-1.09800004959106445 0.240000009536743164 2.40199995040893555
-1.07400000095367432 0.240000009536743164 2.40199995040893555
-1.04999995231628418 0.240000009536743164 2.40199995040893555
-1.01999998092651367 0.240000009536743164 2.40199995040893555
-0.990000009536743164 0.240000009536743164 2.40199995040893555
-0.972000002861022949 0.246000051498413086 2.40199995040893555
-0.893999993801116943 0.246000051498413086 2.40199995040893555
-0.851999998092651367 0.246000051498413086 2.40199995040893555
-1.06200003623962402 0.251999974250793457 2.40199995040893555
-1.00800001621246338 0.251999974250793457 2.40199995040893555
-0.977999985218048096 0.251999974250793457 2.40199995040893555
-0.972000002861022949 0.251999974250793457 2.40199995040893555
-0.948000013828277588 0.251999974250793457 2.40199995040893555
-0.924000024795532227 0.251999974250793457 2.40199995040893555
-0.89999997615814209 0.251999974250793457 2.40199995040893555
-0.870000004768371582 0.251999974250793457 2.40199995040893555
-0.846000015735626221 0.251999974250793457 2.40199995040893555
-0.821999967098236084 0.251999974250793457 2.40199995040893555
-0.797999978065490723 0.251999974250793457 2.40199995040893555
-0.773999989032745361 0.251999974250793457 2.40199995040893555
-0.75 0.258000016212463379 2.40199995040893555
-0.719999969005584717 0.258000016212463379 2.40199995040893555
-0.695999979972839355 0.258000016212463379 2.40199995040893555
-0.671999990940093994 0.264000058174133301 2.40199995040893555
-0.648000001907348633 0.264000058174133301 2.40199995040893555
-0.624000012874603271 0.264000058174133301 2.40199995040893555
-0.599999964237213135 0.269999980926513672 2.40199995040893555
-0.569999992847442627 0.269999980926513672 2.40199995040893555
-0.546000003814697266 0.269999980926513672 2.40199995040893555
-0.522000014781951904 0.269999980926513672 2.40199995040893555
-0.498000025749206543 0.269999980926513672 2.40199995040893555
-0.287999987602233887 0.269999980926513672 2.40199995040893555
-0.606000006198883057 0.276000022888183594 2.40199995040893555
-0.599999964237213135 0.276000022888183594 2.40199995040893555
-0.569999992847442627 0.276000022888183594 2.40199995040893555
-0.546000003814697266 0.276000022888183594 2.40199995040893555
-0.522000014781951904 0.276000022888183594 2.40199995040893555
-0.498000025749206543 0.276000022888183594 2.40199995040893555
-0.473999977111816406 0.276000022888183594 2.40199995040893555
-0.444000005722045898 0.276000022888183594 2.40199995040893555
-0.419999957084655762 0.282000064849853516 2.40199995040893555
-0.396000027656555176 0.282000064849853516 2.40199995040893555
-0.371999979019165039 0.282000064849853516 2.40199995040893555
-0.348000049591064453 0.282000064849853516 2.40199995040893555
-0.324000000953674316 0.282000064849853516 2.40199995040893555
-0.29999995231628418 0.287999987602233887 2.40199995040893555
-0.324000000953674316 0.324000000953674316 2.40199995040893555
-0.330000042915344238 0.330000042915344238 2.40199995040893555
-1.18200004100799561 0.203999996185302734 2.40799999237060547
-0.948000013828277588 0.240000009536743164 2.40799999237060547
-0.924000024795532227 0.246000051498413086 2.40799999237060547
-0.846000015735626221 0.246000051498413086 2.40799999237060547
-0.78600001335144043 0.246000051498413086 2.40799999237060547
-0.473999977111816406 0.269999980926513672 2.40799999237060547
-0.821999967098236084 0.246000051498413086 2.41400003433227539
-0.773999989032745361 0.246000051498413086 2.41400003433227539
-0.726000010967254639 0.246000051498413086 2.41400003433227539
-0.444000005722045898 0.269999980926513672 2.41400003433227539
-0.305999994277954102 0.269999980926513672 2.41400003433227539
-1.16400003433227539 0.228000044822692871 2.42000007629394531
-0.719999969005584717 0.246000051498413086 2.42000007629394531
-0.695999979972839355 0.246000051498413086 2.42000007629394531
-0.419999957084655762 0.269999980926513672 2.42000007629394531
-0.396000027656555176 0.269999980926513672 2.42000007629394531
-0.371999979019165039 0.269999980926513672 2.42000007629394531
-0.330000042915344238 0.269999980926513672 2.42000007629394531
-0.324000000953674316 0.330000042915344238 2.42000007629394531
-1.16400003433227539 0.198000073432922363 2.42600011825561523
-1.16400003433227539 0.210000038146972656 2.42600011825561523
-1.13999998569488525 0.215999960899353027 2.42600011825561523
-1.17599999904632568 0.222000002861022949 2.42600011825561523
-1.06200003623962402 0.222000002861022949 2.42600011825561523
-1.16999995708465576 0.228000044822692871 2.42600011825561523
-1.12800002098083496 0.228000044822692871 2.42600011825561523
-1.11599993705749512 0.228000044822692871 2.42600011825561523
-1.09800004959106445 0.228000044822692871 2.42600011825561523
-1.07400000095367432 0.228000044822692871 2.42600011825561523
-1.04999995231628418 0.228000044822692871 2.42600011825561523
-1.01999998092651367 0.228000044822692871 2.42600011825561523
-0.995999991893768311 0.228000044822692871 2.42600011825561523
-0.966000020503997803 0.228000044822692871 2.42600011825561523
-0.948000013828277588 0.228000044822692871 2.42600011825561523
-0.924000024795532227 0.228000044822692871 2.42600011825561523
-0.89999997615814209 0.233999967575073242 2.42600011825561523
-0.870000004768371582 0.240000009536743164 2.42600011825561523
-0.846000015735626221 0.240000009536743164 2.42600011825561523
-0.821999967098236084 0.240000009536743164 2.42600011825561523
-0.797999978065490723 0.240000009536743164 2.42600011825561523
-0.773999989032745361 0.240000009536743164 2.42600011825561523
-0.75 0.240000009536743164 2.42600011825561523
-0.719999969005584717 0.246000051498413086 2.42600011825561523
-0.695999979972839355 0.246000051498413086 2.42600011825561523
-0.671999990940093994 0.246000051498413086 2.42600011825561523
-0.702000021934509277 0.251999974250793457 2.42600011825561523
-0.684000015258789062 0.251999974250793457 2.42600011825561523
-0.671999990940093994 0.251999974250793457 2.42600011825561523
-0.648000001907348633 0.251999974250793457 2.42600011825561523
-0.624000012874603271 0.251999974250793457 2.42600011825561523
-0.599999964237213135 0.251999974250793457 2.42600011825561523
-0.56400001049041748 0.251999974250793457 2.42600011825561523
-0.546000003814697266 0.258000016212463379 2.42600011825561523
-0.522000014781951904 0.258000016212463379 2.42600011825561523
-0.498000025749206543 0.258000016212463379 2.42600011825561523
-0.473999977111816406 0.264000058174133301 2.42600011825561523
-0.444000005722045898 0.264000058174133301 2.42600011825561523
-0.414000034332275391 0.264000058174133301 2.42600011825561523
-0.294000029563903809 0.264000058174133301 2.42600011825561523
-0.396000027656555176 0.269999980926513672 2.42600011825561523
-0.371999979019165039 0.269999980926513672 2.42600011825561523
-0.348000049591064453 0.269999980926513672 2.42600011825561523
-0.324000000953674316 0.269999980926513672 2.42600011825561523
-0.396000027656555176 0.276000022888183594 2.42600011825561523
-0.365999937057495117 0.276000022888183594 2.42600011825561523
-0.335999965667724609 0.276000022888183594 2.42600011825561523
-0.312000036239624023 0.276000022888183594 2.42600011825561523
-0.324000000953674316 0.324000000953674316 2.42600011825561523
-0.330000042915344238 0.330000042915344238 2.42600011825561523
-0.324000000953674316 0.330000042915344238 2.42600011825561523
-1.11000001430511475 0.215999960899353027 2.43200016021728516
-1.09200000762939453 0.215999960899353027 2.43200016021728516
-1.04400002956390381 0.215999960899353027 2.43200016021728516
-1.01999998092651367 0.222000002861022949 2.43200016021728516
-0.983999967575073242 0.222000002861022949 2.43200016021728516
-0.972000002861022949 0.222000002861022949 2.43200016021728516
-0.648000001907348633 0.246000051498413086 2.43200016021728516
-0.611999988555908203 0.246000051498413086 2.43200016021728516
-0.287999987602233887 0.246000051498413086 2.43200016021728516
-0.29999995231628418 0.282000064849853516 2.43200016021728516
-0.948000013828277588 0.222000002861022949 2.43799996376037598
-0.924000024795532227 0.222000002861022949 2.43799996376037598
-0.599999964237213135 0.246000051498413086 2.43799996376037598
-0.522000014781951904 0.246000051498413086 2.43799996376037598
-0.330000042915344238 0.30000007152557373 2.43799996376037598
-1.14600002765655518 0.192000031471252441 2.4440000057220459
-0.89999997615814209 0.222000002861022949 2.4440000057220459
-0.864000022411346436 0.222000002861022949 2.4440000057220459
-0.569999992847442627 0.246000051498413086 2.4440000057220459
-0.546000003814697266 0.246000051498413086 2.4440000057220459
-1.15199995040893555 0.198000073432922363 2.45000004768371582
-1.13999998569488525 0.198000073432922363 2.45000004768371582
-1.16999995708465576 0.203999996185302734 2.45000004768371582
-1.13400006294250488 0.203999996185302734 2.45000004768371582
-1.12199997901916504 0.203999996185302734 2.45000004768371582
-1.04999995231628418 0.203999996185302734 2.45000004768371582
-1.09200000762939453 0.210000038146972656 2.45000004768371582
-1.07400000095367432 0.210000038146972656 2.45000004768371582
-1.01999998092651367 0.210000038146972656 2.45000004768371582
-1.17599999904632568 0.215999960899353027 2.45000004768371582
-0.995999991893768311 0.215999960899353027 2.45000004768371582
-0.972000002861022949 0.215999960899353027 2.45000004768371582
-0.941999971866607666 0.215999960899353027 2.45000004768371582
-0.924000024795532227 0.215999960899353027 2.45000004768371582
-0.893999993801116943 0.215999960899353027 2.45000004768371582
-0.870000004768371582 0.222000002861022949 2.45000004768371582
-1.13400006294250488 0.228000044822692871 2.45000004768371582
-1.11599993705749512 0.228000044822692871 2.45000004768371582
-0.870000004768371582 0.228000044822692871 2.45000004768371582
-0.846000015735626221 0.228000044822692871 2.45000004768371582
-0.821999967098236084 0.228000044822692871 2.45000004768371582
-0.797999978065490723 0.228000044822692871 2.45000004768371582
-0.773999989032745361 0.228000044822692871 2.45000004768371582
-0.75 0.228000044822692871 2.45000004768371582
-0.719999969005584717 0.233999967575073242 2.45000004768371582
-0.695999979972839355 0.233999967575073242 2.45000004768371582
-0.671999990940093994 0.233999967575073242 2.45000004768371582
-0.648000001907348633 0.233999967575073242 2.45000004768371582
-0.624000012874603271 0.240000009536743164 2.45000004768371582
-0.599999964237213135 0.240000009536743164 2.45000004768371582
-0.56400001049041748 0.240000009536743164 2.45000004768371582
-0.539999961853027344 0.240000009536743164 2.45000004768371582
-0.287999987602233887 0.240000009536743164 2.45000004768371582
-0.522000014781951904 0.246000051498413086 2.45000004768371582
-0.498000025749206543 0.246000051498413086 2.45000004768371582
-0.473999977111816406 0.246000051498413086 2.45000004768371582
-0.557999968528747559 0.251999974250793457 2.45000004768371582
-0.509999990463256836 0.251999974250793457 2.45000004768371582
-0.491999983787536621 0.251999974250793457 2.45000004768371582
-0.473999977111816406 0.251999974250793457 2.45000004768371582
-0.444000005722045898 0.251999974250793457 2.45000004768371582
-0.419999957084655762 0.251999974250793457 2.45000004768371582
-0.396000027656555176 0.251999974250793457 2.45000004768371582
-0.371999979019165039 0.251999974250793457 2.45000004768371582
-0.317999958992004395 0.251999974250793457 2.45000004768371582
-0.294000029563903809 0.251999974250793457 2.45000004768371582
-0.348000049591064453 0.258000016212463379 2.45000004768371582
-1.12199997901916504 0.192000031471252441 2.45599985122680664
-1.03200006484985352 0.198000073432922363 2.45599985122680664
-1.01999998092651367 0.198000073432922363 2.45599985122680664
-0.846000015735626221 0.222000002861022949 2.45599985122680664
-0.444000005722045898 0.246000051498413086 2.45599985122680664
-0.419999957084655762 0.246000051498413086 2.45599985122680664
-0.821999967098236084 0.222000002861022949 2.46199989318847656
-0.797999978065490723 0.222000002861022949 2.46199989318847656
-0.773999989032745361 0.222000002861022949 2.46199989318847656
-0.75 0.222000002861022949 2.46199989318847656
-0.719999969005584717 0.222000002861022949 2.46199989318847656
-0.396000027656555176 0.246000051498413086 2.46199989318847656
-0.371999979019165039 0.246000051498413086 2.46199989318847656
-0.324000000953674316 0.246000051498413086 2.46199989318847656
-1.09800004959106445 0.198000073432922363 2.46799993515014648
-0.695999979972839355 0.222000002861022949 2.46799993515014648
-0.666000008583068848 0.222000002861022949 2.46799993515014648
-0.648000001907348633 0.222000002861022949 2.46799993515014648
-0.348000049591064453 0.246000051498413086 2.46799993515014648
-1.25399994850158691 0.0600000619888305664 2.47399997711181641
-1.0559999942779541 0.198000073432922363 2.47399997711181641
-0.983999967575073242 0.198000073432922363 2.47399997711181641
-0.972000002861022949 0.198000073432922363 2.47399997711181641
-0.611999988555908203 0.222000002861022949 2.47399997711181641
-0.587999999523162842 0.222000002861022949 2.47399997711181641
-1.02600002288818359 0.18599998950958252 2.48000001907348633
-1.01999998092651367 0.18599998950958252 2.48000001907348633
-1.17599999904632568 0.198000073432922363 2.48000001907348633
-1.12800002098083496 0.198000073432922363 2.48000001907348633
-1.12199997901916504 0.198000073432922363 2.48000001907348633
-1.09800004959106445 0.198000073432922363 2.48000001907348633
-1.07400000095367432 0.198000073432922363 2.48000001907348633
-0.995999991893768311 0.198000073432922363 2.48000001907348633
-0.972000002861022949 0.198000073432922363 2.48000001907348633
-0.948000013828277588 0.198000073432922363 2.48000001907348633
-0.924000024795532227 0.198000073432922363 2.48000001907348633
-1.16999995708465576 0.203999996185302734 2.48000001907348633
-1.12800002098083496 0.203999996185302734 2.48000001907348633
-1.12199997901916504 0.203999996185302734 2.48000001907348633
-1.09800004959106445 0.203999996185302734 2.48000001907348633
-1.00800001621246338 0.203999996185302734 2.48000001907348633
-0.990000009536743164 0.203999996185302734 2.48000001907348633
-0.966000020503997803 0.203999996185302734 2.48000001907348633
-0.948000013828277588 0.203999996185302734 2.48000001907348633
-0.924000024795532227 0.203999996185302734 2.48000001907348633
-0.89999997615814209 0.203999996185302734 2.48000001907348633
-0.870000004768371582 0.203999996185302734 2.48000001907348633
-0.839999973773956299 0.203999996185302734 2.48000001907348633
-0.821999967098236084 0.210000038146972656 2.48000001907348633
-0.797999978065490723 0.210000038146972656 2.48000001907348633
-0.773999989032745361 0.210000038146972656 2.48000001907348633
-0.726000010967254639 0.210000038146972656 2.48000001907348633
-0.719999969005584717 0.215999960899353027 2.48000001907348633
-0.695999979972839355 0.215999960899353027 2.48000001907348633
-0.671999990940093994 0.215999960899353027 2.48000001907348633
-0.648000001907348633 0.215999960899353027 2.48000001907348633
-0.611999988555908203 0.215999960899353027 2.48000001907348633
-0.599999964237213135 0.222000002861022949 2.48000001907348633
-0.569999992847442627 0.222000002861022949 2.48000001907348633
-0.624000012874603271 0.228000044822692871 2.48000001907348633
-0.599999964237213135 0.228000044822692871 2.48000001907348633
-0.569999992847442627 0.228000044822692871 2.48000001907348633
-0.546000003814697266 0.228000044822692871 2.48000001907348633
-0.522000014781951904 0.228000044822692871 2.48000001907348633
-0.498000025749206543 0.228000044822692871 2.48000001907348633
-0.473999977111816406 0.228000044822692871 2.48000001907348633
-0.287999987602233887 0.228000044822692871 2.48000001907348633
-0.444000005722045898 0.233999967575073242 2.48000001907348633
-0.419999957084655762 0.233999967575073242 2.48000001907348633
-0.389999985694885254 0.233999967575073242 2.48000001907348633
-0.371999979019165039 0.240000009536743164 2.48000001907348633
-0.348000049591064453 0.240000009536743164 2.48000001907348633
-0.324000000953674316 0.240000009536743164 2.48000001907348633
-0.305999994277954102 0.251999974250793457 2.48000001907348633
-0.29999995231628418 0.251999974250793457 2.48000001907348633
-0.89999997615814209 0.198000073432922363 2.48600006103515625
-0.281999945640563965 0.215999960899353027 2.48600006103515625
-0.546000003814697266 0.222000002861022949 2.48600006103515625
-0.522000014781951904 0.222000002861022949 2.48600006103515625
-0.498000025749206543 0.222000002861022949 2.48600006103515625
-0.864000022411346436 0.198000073432922363 2.49200010299682617
-0.846000015735626221 0.198000073432922363 2.49200010299682617
-0.815999984741210938 0.198000073432922363 2.49200010299682617
-1.17599999904632568 0.203999996185302734 2.49200010299682617
-0.473999977111816406 0.222000002861022949 2.49200010299682617
-0.797999978065490723 0.198000073432922363 2.49800014495849609
-0.444000005722045898 0.222000002861022949 2.49800014495849609
-1.01399993896484375 0.180000066757202148 2.50399994850158691
-1.04999995231628418 0.18599998950958252 2.50399994850158691
-0.990000009536743164 0.18599998950958252 2.50399994850158691
-0.972000002861022949 0.18599998950958252 2.50399994850158691
-0.948000013828277588 0.18599998950958252 2.50399994850158691
-0.917999982833862305 0.18599998950958252 2.50399994850158691
-0.89999997615814209 0.18599998950958252 2.50399994850158691
-1.09200000762939453 0.192000031471252441 2.50399994850158691
-1.06200003623962402 0.192000031471252441 2.50399994850158691
-0.870000004768371582 0.192000031471252441 2.50399994850158691
-0.846000015735626221 0.192000031471252441 2.50399994850158691
-0.797999978065490723 0.192000031471252441 2.50399994850158691
-0.804000020027160645 0.198000073432922363 2.50399994850158691
-0.773999989032745361 0.198000073432922363 2.50399994850158691
-0.75 0.198000073432922363 2.50399994850158691
-0.719999969005584717 0.198000073432922363 2.50399994850158691
-0.791999995708465576 0.203999996185302734 2.50399994850158691
-0.773999989032745361 0.203999996185302734 2.50399994850158691
-0.75 0.203999996185302734 2.50399994850158691
-0.719999969005584717 0.203999996185302734 2.50399994850158691
-0.695999979972839355 0.203999996185302734 2.50399994850158691
-0.671999990940093994 0.203999996185302734 2.50399994850158691
-0.648000001907348633 0.203999996185302734 2.50399994850158691
-0.624000012874603271 0.203999996185302734 2.50399994850158691
-0.599999964237213135 0.203999996185302734 2.50399994850158691
-0.569999992847442627 0.210000038146972656 2.50399994850158691
-0.546000003814697266 0.210000038146972656 2.50399994850158691
-0.522000014781951904 0.210000038146972656 2.50399994850158691
-0.498000025749206543 0.215999960899353027 2.50399994850158691
-0.473999977111816406 0.215999960899353027 2.50399994850158691
-0.444000005722045898 0.215999960899353027 2.50399994850158691
-0.419999957084655762 0.222000002861022949 2.50399994850158691
-0.396000027656555176 0.222000002861022949 2.50399994850158691
-0.312000036239624023 0.222000002861022949 2.50399994850158691
-0.432000041007995605 0.228000044822692871 2.50399994850158691
-0.419999957084655762 0.228000044822692871 2.50399994850158691
-0.396000027656555176 0.228000044822692871 2.50399994850158691
-0.371999979019165039 0.228000044822692871 2.50399994850158691
-0.348000049591064453 0.228000044822692871 2.50399994850158691
-0.324000000953674316 0.228000044822692871 2.50399994850158691
-0.29999995231628418 0.228000044822692871 2.50399994850158691
-0.305999994277954102 0.251999974250793457 2.50399994850158691
-1.03200006484985352 0.174000024795532227 2.50999999046325684
-0.695999979972839355 0.198000073432922363 2.50999999046325684
-0.371999979019165039 0.222000002861022949 2.50999999046325684
-0.348000049591064453 0.222000002861022949 2.50999999046325684
-0.29999995231628418 0.222000002861022949 2.50999999046325684
-0.671999990940093994 0.198000073432922363 2.51600003242492676
-0.648000001907348633 0.198000073432922363 2.51600003242492676
-0.624000012874603271 0.198000073432922363 2.51600003242492676
-0.593999981880187988 0.198000073432922363 2.51600003242492676
-0.959999978542327881 0.174000024795532227 2.52200007438659668
-0.569999992847442627 0.198000073432922363 2.52200007438659668
-0.546000003814697266 0.198000073432922363 2.52200007438659668
-1.04999995231628418 0.167999982833862305 2.5280001163482666
-1.00800001621246338 0.174000024795532227 2.5280001163482666
-0.990000009536743164 0.174000024795532227 2.5280001163482666
-0.972000002861022949 0.174000024795532227 2.5280001163482666
-0.948000013828277588 0.174000024795532227 2.5280001163482666
-0.924000024795532227 0.174000024795532227 2.5280001163482666
-1.01399993896484375 0.180000066757202148 2.5280001163482666
-0.983999967575073242 0.180000066757202148 2.5280001163482666
-0.972000002861022949 0.180000066757202148 2.5280001163482666
-0.930000007152557373 0.180000066757202148 2.5280001163482666
-0.924000024795532227 0.180000066757202148 2.5280001163482666
-0.89999997615814209 0.180000066757202148 2.5280001163482666
-0.870000004768371582 0.180000066757202148 2.5280001163482666
-0.846000015735626221 0.180000066757202148 2.5280001163482666
-0.821999967098236084 0.180000066757202148 2.5280001163482666
-0.791999995708465576 0.180000066757202148 2.5280001163482666
-0.768000006675720215 0.180000066757202148 2.5280001163482666
-0.75 0.180000066757202148 2.5280001163482666
-0.719999969005584717 0.18599998950958252 2.5280001163482666
-0.689999997615814209 0.18599998950958252 2.5280001163482666
-0.659999966621398926 0.18599998950958252 2.5280001163482666
-0.648000001907348633 0.192000031471252441 2.5280001163482666
-0.624000012874603271 0.192000031471252441 2.5280001163482666
-0.599999964237213135 0.192000031471252441 2.5280001163482666
-1.02600002288818359 0.198000073432922363 2.5280001163482666
-0.569999992847442627 0.198000073432922363 2.5280001163482666
-0.546000003814697266 0.198000073432922363 2.5280001163482666
-0.522000014781951904 0.198000073432922363 2.5280001163482666
-0.56400001049041748 0.203999996185302734 2.5280001163482666
-0.546000003814697266 0.203999996185302734 2.5280001163482666
-0.522000014781951904 0.203999996185302734 2.5280001163482666
-0.498000025749206543 0.203999996185302734 2.5280001163482666
-0.473999977111816406 0.203999996185302734 2.5280001163482666
-0.281999945640563965 0.203999996185302734 2.5280001163482666
-0.444000005722045898 0.210000038146972656 2.5280001163482666
-0.419999957084655762 0.210000038146972656 2.5280001163482666
-0.396000027656555176 0.210000038146972656 2.5280001163482666
-0.371999979019165039 0.210000038146972656 2.5280001163482666
-0.348000049591064453 0.210000038146972656 2.5280001163482666
-0.324000000953674316 0.210000038146972656 2.5280001163482666
-0.29999995231628418 0.228000044822692871 2.5280001163482666
-1.0559999942779541 0.162000060081481934 2.53399991989135742
-0.89999997615814209 0.174000024795532227 2.53399991989135742
-0.498000025749206543 0.198000073432922363 2.53399991989135742
-0.473999977111816406 0.198000073432922363 2.53399991989135742
-0.870000004768371582 0.174000024795532227 2.53999996185302734
-0.846000015735626221 0.174000024795532227 2.53999996185302734
-0.821999967098236084 0.174000024795532227 2.53999996185302734
-0.797999978065490723 0.174000024795532227 2.53999996185302734
-0.744000017642974854 0.174000024795532227 2.53999996185302734
-0.444000005722045898 0.198000073432922363 2.53999996185302734
-0.407999992370605469 0.198000073432922363 2.53999996185302734
-0.294000029563903809 0.198000073432922363 2.53999996185302734
-0.773999989032745361 0.174000024795532227 2.54600000381469727
-0.719999969005584717 0.174000024795532227 2.54600000381469727
-0.677999973297119141 0.174000024795532227 2.54600000381469727
-0.396000027656555176 0.198000073432922363 2.54600000381469727
-0.371999979019165039 0.198000073432922363 2.54600000381469727
-0.312000036239624023 0.198000073432922363 2.54600000381469727
-0.305999994277954102 0.228000044822692871 2.54600000381469727
-1.09200000762939453 0.14999997615814209 2.55200004577636719
-1.03200006484985352 0.156000018119812012 2.55200004577636719
-1.01399993896484375 0.156000018119812012 2.55200004577636719
-0.995999991893768311 0.162000060081481934 2.55200004577636719
-0.972000002861022949 0.162000060081481934 2.55200004577636719
-0.948000013828277588 0.162000060081481934 2.55200004577636719
-0.924000024795532227 0.162000060081481934 2.55200004577636719
-1.06200003623962402 0.167999982833862305 2.55200004577636719
-0.89999997615814209 0.167999982833862305 2.55200004577636719
-0.870000004768371582 0.167999982833862305 2.55200004577636719
-0.846000015735626221 0.167999982833862305 2.55200004577636719
-0.815999984741210938 0.167999982833862305 2.55200004577636719
-0.797999978065490723 0.167999982833862305 2.55200004577636719
-0.768000006675720215 0.167999982833862305 2.55200004577636719
-0.744000017642974854 0.174000024795532227 2.55200004577636719
-0.719999969005584717 0.174000024795532227 2.55200004577636719
-0.695999979972839355 0.174000024795532227 2.55200004577636719
-0.671999990940093994 0.174000024795532227 2.55200004577636719
-1.00800001621246338 0.180000066757202148 2.55200004577636719
-0.708000004291534424 0.180000066757202148 2.55200004577636719
-0.695999979972839355 0.180000066757202148 2.55200004577636719
-0.671999990940093994 0.180000066757202148 2.55200004577636719
-0.648000001907348633 0.180000066757202148 2.55200004577636719
-0.599999964237213135 0.180000066757202148 2.55200004577636719
-0.941999971866607666 0.18599998950958252 2.55200004577636719
-0.624000012874603271 0.18599998950958252 2.55200004577636719
-0.569999992847442627 0.18599998950958252 2.55200004577636719
-0.546000003814697266 0.18599998950958252 2.55200004577636719
-0.522000014781951904 0.18599998950958252 2.55200004577636719
-0.498000025749206543 0.18599998950958252 2.55200004577636719
-0.276000022888183594 0.18599998950958252 2.55200004577636719
-0.473999977111816406 0.192000031471252441 2.55200004577636719
-0.444000005722045898 0.192000031471252441 2.55200004577636719
-0.419999957084655762 0.192000031471252441 2.55200004577636719
-0.396000027656555176 0.198000073432922363 2.55200004577636719
-0.371999979019165039 0.198000073432922363 2.55200004577636719
-0.348000049591064453 0.198000073432922363 2.55200004577636719
-0.324000000953674316 0.198000073432922363 2.55200004577636719
-0.425999999046325684 0.203999996185302734 2.55200004577636719
-0.389999985694885254 0.203999996185302734 2.55200004577636719
-0.371999979019165039 0.203999996185302734 2.55200004577636719
-0.348000049591064453 0.203999996185302734 2.55200004577636719
-0.324000000953674316 0.203999996185302734 2.55200004577636719
-0.287999987602233887 0.203999996185302734 2.55200004577636719
-0.305999994277954102 0.228000044822692871 2.55200004577636719
-0.648000001907348633 0.174000024795532227 2.55800008773803711
-1.28999996185302734 0.0959999561309814453 2.56400012969970703
-1.11000001430511475 0.138000011444091797 2.56400012969970703
-1.03799998760223389 0.14999997615814209 2.56400012969970703
-1.00199997425079346 0.14999997615814209 2.56400012969970703
-0.995999991893768311 0.14999997615814209 2.56400012969970703
-0.972000002861022949 0.14999997615814209 2.56400012969970703
-1.07999992370605469 0.156000018119812012 2.56400012969970703
-0.624000012874603271 0.174000024795532227 2.56400012969970703
-0.599999964237213135 0.174000024795532227 2.56400012969970703
-1.03799998760223389 0.180000066757202148 2.56400012969970703
-1.0559999942779541 0.14999997615814209 2.56999993324279785
-0.948000013828277588 0.14999997615814209 2.56999993324279785
-0.569999992847442627 0.174000024795532227 2.56999993324279785
-0.546000003814697266 0.174000024795532227 2.56999993324279785
-0.522000014781951904 0.174000024795532227 2.56999993324279785
-0.498000025749206543 0.174000024795532227 2.56999993324279785
-0.269999980926513672 0.180000066757202148 2.56999993324279785
-1.12800002098083496 0.138000011444091797 2.57599997520446777
-1.12199997901916504 0.138000011444091797 2.57599997520446777
-1.00199997425079346 0.138000011444091797 2.57599997520446777
-0.959999978542327881 0.138000011444091797 2.57599997520446777
-1.09200000762939453 0.144000053405761719 2.57599997520446777
-1.0559999942779541 0.144000053405761719 2.57599997520446777
-1.04999995231628418 0.144000053405761719 2.57599997520446777
-0.995999991893768311 0.144000053405761719 2.57599997520446777
-0.948000013828277588 0.144000053405761719 2.57599997520446777
-0.924000024795532227 0.14999997615814209 2.57599997520446777
-1.07999992370605469 0.156000018119812012 2.57599997520446777
-1.03799998760223389 0.156000018119812012 2.57599997520446777
-0.941999971866607666 0.156000018119812012 2.57599997520446777
-0.924000024795532227 0.156000018119812012 2.57599997520446777
-0.89999997615814209 0.156000018119812012 2.57599997520446777
-0.870000004768371582 0.156000018119812012 2.57599997520446777
-0.846000015735626221 0.156000018119812012 2.57599997520446777
-0.821999967098236084 0.156000018119812012 2.57599997520446777
-0.78600001335144043 0.156000018119812012 2.57599997520446777
-0.773999989032745361 0.156000018119812012 2.57599997520446777
-0.731999993324279785 0.156000018119812012 2.57599997520446777
-1.06799995899200439 0.162000060081481934 2.57599997520446777
-0.719999969005584717 0.162000060081481934 2.57599997520446777
-0.695999979972839355 0.162000060081481934 2.57599997520446777
-0.671999990940093994 0.162000060081481934 2.57599997520446777
-0.648000001907348633 0.167999982833862305 2.57599997520446777
-0.624000012874603271 0.167999982833862305 2.57599997520446777
-0.599999964237213135 0.167999982833862305 2.57599997520446777
-0.569999992847442627 0.167999982833862305 2.57599997520446777
-0.276000022888183594 0.167999982833862305 2.57599997520446777
-0.546000003814697266 0.174000024795532227 2.57599997520446777
-0.522000014781951904 0.174000024795532227 2.57599997520446777
-0.498000025749206543 0.174000024795532227 2.57599997520446777
-0.473999977111816406 0.174000024795532227 2.57599997520446777
-1.03799998760223389 0.180000066757202148 2.57599997520446777
-0.61799997091293335 0.180000066757202148 2.57599997520446777
-0.593999981880187988 0.180000066757202148 2.57599997520446777
-0.569999992847442627 0.180000066757202148 2.57599997520446777
-0.546000003814697266 0.180000066757202148 2.57599997520446777
-0.522000014781951904 0.180000066757202148 2.57599997520446777
-0.498000025749206543 0.180000066757202148 2.57599997520446777
-0.473999977111816406 0.180000066757202148 2.57599997520446777
-0.444000005722045898 0.180000066757202148 2.57599997520446777
-0.419999957084655762 0.180000066757202148 2.57599997520446777
-0.396000027656555176 0.180000066757202148 2.57599997520446777
-0.371999979019165039 0.180000066757202148 2.57599997520446777
-0.294000029563903809 0.180000066757202148 2.57599997520446777
-0.348000049591064453 0.18599998950958252 2.57599997520446777
-0.324000000953674316 0.18599998950958252 2.57599997520446777
-0.312000036239624023 0.233999967575073242 2.57599997520446777
-1.15199995040893555 0.120000004768371582 2.5820000171661377
-0.89999997615814209 0.14999997615814209 2.5820000171661377
-0.870000004768371582 0.14999997615814209 2.5820000171661377
-0.846000015735626221 0.14999997615814209 2.5820000171661377
-0.269999980926513672 0.167999982833862305 2.5820000171661377
-0.444000005722045898 0.174000024795532227 2.5820000171661377
-0.419999957084655762 0.174000024795532227 2.5820000171661377
-0.396000027656555176 0.174000024795532227 2.5820000171661377
-1.28999996185302734 0.0959999561309814453 2.58800005912780762
-1.30799996852874756 0.101999998092651367 2.58800005912780762
-1.28999996185302734 0.101999998092651367 2.58800005912780762
-1.18799996376037598 0.11399996280670166 2.58800005912780762
-0.821999967098236084 0.14999997615814209 2.58800005912780762
-0.755999982357025146 0.14999997615814209 2.58800005912780762
-0.737999975681304932 0.14999997615814209 2.58800005912780762
-0.371999979019165039 0.174000024795532227 2.58800005912780762
-0.330000042915344238 0.174000024795532227 2.58800005912780762
-1.15199995040893555 0.126000046730041504 2.59400010108947754
-0.797999978065490723 0.14999997615814209 2.59400010108947754
-0.719999969005584717 0.14999997615814209 2.59400010108947754
-0.324000000953674316 0.174000024795532227 2.59400010108947754
-1.21200001239776611 0.11399996280670166 2.59999990463256836
-1.14600002765655518 0.120000004768371582 2.59999990463256836
-0.695999979972839355 0.14999997615814209 2.59999990463256836
-0.671999990940093994 0.14999997615814209 2.59999990463256836
-0.648000001907348633 0.14999997615814209 2.59999990463256836
-1.32599997520446777 0.101999998092651367 2.60599994659423828
-1.24199998378753662 0.108000040054321289 2.60599994659423828
-1.15199995040893555 0.11399996280670166 2.60599994659423828
-1.14600002765655518 0.120000004768371582 2.60599994659423828
-1.12199997901916504 0.120000004768371582 2.60599994659423828
-1.12199997901916504 0.126000046730041504 2.60599994659423828
-1.09200000762939453 0.126000046730041504 2.60599994659423828
-1.07400000095367432 0.126000046730041504 2.60599994659423828
-1.04999995231628418 0.126000046730041504 2.60599994659423828
-1.01999998092651367 0.126000046730041504 2.60599994659423828
-0.995999991893768311 0.126000046730041504 2.60599994659423828
-0.972000002861022949 0.126000046730041504 2.60599994659423828
-1.15199995040893555 0.131999969482421875 2.60599994659423828
-1.13400006294250488 0.131999969482421875 2.60599994659423828
-0.948000013828277588 0.131999969482421875 2.60599994659423828
-0.924000024795532227 0.131999969482421875 2.60599994659423828
-0.89999997615814209 0.131999969482421875 2.60599994659423828
-0.870000004768371582 0.138000011444091797 2.60599994659423828
-0.846000015735626221 0.138000011444091797 2.60599994659423828
-0.821999967098236084 0.138000011444091797 2.60599994659423828
-0.797999978065490723 0.138000011444091797 2.60599994659423828
-0.773999989032745361 0.144000053405761719 2.60599994659423828
-0.75 0.144000053405761719 2.60599994659423828
-0.71399998664855957 0.144000053405761719 2.60599994659423828
-0.695999979972839355 0.144000053405761719 2.60599994659423828
-0.659999966621398926 0.144000053405761719 2.60599994659423828
-0.648000001907348633 0.14999997615814209 2.60599994659423828
-0.624000012874603271 0.14999997615814209 2.60599994659423828
-0.582000017166137695 0.14999997615814209 2.60599994659423828
-1.09200000762939453 0.156000018119812012 2.60599994659423828
-1.07400000095367432 0.156000018119812012 2.60599994659423828
-0.684000015258789062 0.156000018119812012 2.60599994659423828
-0.671999990940093994 0.156000018119812012 2.60599994659423828
-0.648000001907348633 0.156000018119812012 2.60599994659423828
-0.624000012874603271 0.156000018119812012 2.60599994659423828
-0.599999964237213135 0.156000018119812012 2.60599994659423828
-0.569999992847442627 0.156000018119812012 2.60599994659423828
-0.546000003814697266 0.156000018119812012 2.60599994659423828
-0.522000014781951904 0.156000018119812012 2.60599994659423828
-0.498000025749206543 0.156000018119812012 2.60599994659423828
-0.473999977111816406 0.156000018119812012 2.60599994659423828
-0.276000022888183594 0.156000018119812012 2.60599994659423828
-0.444000005722045898 0.162000060081481934 2.60599994659423828
-0.419999957084655762 0.162000060081481934 2.60599994659423828
-0.396000027656555176 0.167999982833862305 2.60599994659423828
-0.371999979019165039 0.167999982833862305 2.60599994659423828
-0.348000049591064453 0.167999982833862305 2.60599994659423828
-0.324000000953674316 0.167999982833862305 2.60599994659423828
-0.281999945640563965 0.180000066757202148 2.60599994659423828
-1.32599997520446777 0.0720000267028808594 2.6119999885559082
-1.3320000171661377 0.0780000686645507812 2.6119999885559082
-1.31999993324279785 0.0780000686645507812 2.6119999885559082
-1.27799999713897705 0.108000040054321289 2.6119999885559082
-1.27199995517730713 0.108000040054321289 2.6119999885559082
-1.18200004100799561 0.108000040054321289 2.6119999885559082
-1.21799993515014648 0.11399996280670166 2.6119999885559082
-1.06200003623962402 0.120000004768371582 2.6119999885559082
-0.990000009536743164 0.120000004768371582 2.6119999885559082
-0.569999992847442627 0.14999997615814209 2.6119999885559082
-0.546000003814697266 0.14999997615814209 2.6119999885559082
-1.35000002384185791 0.0900000333786010742 2.61800003051757812
-1.02600002288818359 0.11399996280670166 2.61800003051757812
-1.09800004959106445 0.120000004768371582 2.61800003051757812
-1.01399993896484375 0.120000004768371582 2.61800003051757812
-0.972000002861022949 0.120000004768371582 2.61800003051757812
-0.948000013828277588 0.120000004768371582 2.61800003051757812
-0.924000024795532227 0.120000004768371582 2.61800003051757812
-0.522000014781951904 0.14999997615814209 2.61800003051757812
-0.498000025749206543 0.14999997615814209 2.61800003051757812
-0.473999977111816406 0.14999997615814209 2.61800003051757812
-0.606000006198883057 0.180000066757202148 2.61800003051757812
-0.305999994277954102 0.192000031471252441 2.61800003051757812
-1.31999993324279785 0.0659999847412109375 2.62400007247924805
-1.29600000381469727 0.0959999561309814453 2.62400007247924805
-1.26600003242492676 0.0959999561309814453 2.62400007247924805
-0.437999963760375977 0.14999997615814209 2.62400007247924805
-0.276000022888183594 0.14999997615814209 2.62400007247924805
-1.32599997520446777 0.0659999847412109375 2.63000011444091797
-1.31999993324279785 0.0720000267028808594 2.63000011444091797
-1.33800005912780762 0.0839999914169311523 2.63000011444091797
-1.31999993324279785 0.0839999914169311523 2.63000011444091797
-1.26600003242492676 0.0959999561309814453 2.63000011444091797
-1.24800002574920654 0.0959999561309814453 2.63000011444091797
-1.33800005912780762 0.101999998092651367 2.63000011444091797
-1.28999996185302734 0.101999998092651367 2.63000011444091797
-1.27199995517730713 0.101999998092651367 2.63000011444091797
-1.24800002574920654 0.108000040054321289 2.63000011444091797
-1.20599997043609619 0.108000040054321289 2.63000011444091797
-1.1940000057220459 0.108000040054321289 2.63000011444091797
-1.16999995708465576 0.108000040054321289 2.63000011444091797
-1.14600002765655518 0.108000040054321289 2.63000011444091797
-1.12199997901916504 0.108000040054321289 2.63000011444091797
-1.08599996566772461 0.108000040054321289 2.63000011444091797
-1.07400000095367432 0.11399996280670166 2.63000011444091797
-1.04999995231628418 0.11399996280670166 2.63000011444091797
-1.01999998092651367 0.11399996280670166 2.63000011444091797
-0.995999991893768311 0.11399996280670166 2.63000011444091797
-0.972000002861022949 0.11399996280670166 2.63000011444091797
-0.948000013828277588 0.11399996280670166 2.63000011444091797
-0.924000024795532227 0.120000004768371582 2.63000011444091797
-0.89999997615814209 0.120000004768371582 2.63000011444091797
