ply
format ascii 1.0
element vertex 761
property float x
property float y
property float z
end_header
-0.29999995231628418 -0.0180000066757202148 1.40000009536743164
-0.251999974250793457 -0.011999964714050293 1.40000009536743164
-0.245999932289123535 -0.011999964714050293 1.40000009536743164
-0.222000002861022949 -0.011999964714050293 1.40000009536743164
-0.197999954223632812 -0.011999964714050293 1.40000009536743164
-0.174000024795532227 -0.011999964714050293 1.40000009536743164
-0.14999997615814209 -0.011999964714050293 1.40000009536743164
-0.101999998092651367 -0.00600004196166992188 1.40000009536743164
-0.0959999561309814453 -0.00600004196166992188 1.40000009536743164
-0.0720000267028808594 -0.00600004196166992188 1.40000009536743164
-0.0479999780654907227 -0.00600004196166992188 1.40000009536743164
0 -0.00600004196166992188 1.40000009536743164
0.0540000200271606445 0 1.40000009536743164
0.0780000686645507812 0 1.40000009536743164
0.101999998092651367 0 1.40000009536743164
0.126000046730041504 0 1.40000009536743164
0.156000018119812012 0 1.40000009536743164
0.180000066757202148 0 1.40000009536743164
0.203999996185302734 0 1.40000009536743164
0.228000044822692871 0 1.40000009536743164
0.0240000486373901367 0.00600004196166992188 1.40000009536743164
0.0299999713897705078 0.00600004196166992188 1.40000009536743164
0.251999974250793457 0.00600004196166992188 1.40000009536743164
0.276000022888183594 0.00600004196166992188 1.40000009536743164
0.30000007152557373 0.00600004196166992188 1.40000009536743164
0.480000019073486328 0.0180000066757202148 1.40000009536743164
0.503999948501586914 0.0180000066757202148 1.40000009536743164
0.528000116348266602 0.0180000066757202148 1.40000009536743164
0.552000045776367188 0.0180000066757202148 1.40000009536743164
0.575999975204467773 0.0180000066757202148 1.40000009536743164
0.605999946594238281 0.0180000066757202148 1.40000009536743164
0.630000114440917969 0.0180000066757202148 1.40000009536743164
0.654000043869018555 0.0180000066757202148 1.40000009536743164
0.690000057220458984 0.0180000066757202148 1.40000009536743164
0.732000112533569336 0.0240000486373901367 1.40000009536743164
0.75 0.0240000486373901367 1.40000009536743164
0.779999971389770508 0.0240000486373901367 1.40000009536743164
0.803999900817871094 0.0240000486373901367 1.40000009536743164
0.828000068664550781 0.0240000486373901367 1.40000009536743164
0.851999998092651367 0.0240000486373901367 1.40000009536743164
0.875999927520751953 0.0240000486373901367 1.40000009536743164
0.900000095367431641 0.0240000486373901367 1.40000009536743164
0.990000009536743164 0.0299999713897705078 1.40000009536743164
-0.485999941825866699 0.743999958038330078 1.40000009536743164
-0.485999941825866699 0.75 1.40000009536743164
-0.473999977111816406 0.75 1.40000009536743164
-0.444000005722045898 0.762000083923339844 1.40000009536743164
-0.419999957084655762 0.762000083923339844 1.40000009536743164
-0.396000027656555176 0.762000083923339844 1.40000009536743164
0.768000125885009766 0.798000097274780273 1.40000009536743164
0.654000043869018555 0.803999900817871094 1.40000009536743164
0.71399998664855957 0.803999900817871094 1.40000009536743164
0.726000070571899414 0.803999900817871094 1.40000009536743164
0.75 0.803999900817871094 1.40000009536743164
0.516000032424926758 0.809999942779541016 1.40000009536743164
0.528000116348266602 0.809999942779541016 1.40000009536743164
0.558000087738037109 0.809999942779541016 1.40000009536743164
0.575999975204467773 0.809999942779541016 1.40000009536743164
0.605999946594238281 0.809999942779541016 1.40000009536743164
0.630000114440917969 0.809999942779541016 1.40000009536743164
0.677999973297119141 0.809999942779541016 1.40000009536743164
-0.624000012874603271 -0.0599999427795410156 1.40600001811981201
-0.444000005722045898 -0.0299999713897705078 1.40600001811981201
-0.0239999294281005859 -0.011999964714050293 1.40600001811981201
0.0959999561309814453 -0.00600004196166992188 1.40600001811981201
0.108000040054321289 -0.00600004196166992188 1.40600001811981201
0.701999902725219727 0.0180000066757202148 1.40600001811981201
0.930000066757202148 0.0240000486373901367 1.40600001811981201
1.01999998092651367 0.0360000133514404297 1.40600001811981201
-0.473999977111816406 0.743999958038330078 1.40600001811981201
-0.677999973297119141 -0.0720000267028808594 1.41199994087219238
-0.546000003814697266 -0.0540000200271606445 1.41199994087219238
-0.419999957084655762 -0.0299999713897705078 1.41199994087219238
0.0600000619888305664 -0.00600004196166992188 1.41199994087219238
0.126000046730041504 -0.00600004196166992188 1.41199994087219238
0.156000018119812012 -0.00600004196166992188 1.41199994087219238
0.180000066757202148 -0.00600004196166992188 1.41199994087219238
0.203999996185302734 -0.00600004196166992188 1.41199994087219238
0.473999977111816406 0.011999964714050293 1.41199994087219238
-0.509999990463256836 0.732000112533569336 1.41199994087219238
0.569999933242797852 0.756000041961669922 1.41199994087219238
0.737999916076660156 0.798000097274780273 1.41199994087219238
-0.702000021934509277 -0.0720000267028808594 1.4179999828338623
-0.396000027656555176 -0.0299999713897705078 1.4179999828338623
-0.371999979019165039 -0.0299999713897705078 1.4179999828338623
0.0299999713897705078 -0.00600004196166992188 1.4179999828338623
0.228000044822692871 -0.00600004196166992188 1.4179999828338623
0.251999974250793457 -0.00600004196166992188 1.4179999828338623
0.330000042915344238 0 1.4179999828338623
0.533999919891357422 0.798000097274780273 1.4179999828338623
0.558000087738037109 0.798000097274780273 1.4179999828338623
0.660000085830688477 0.798000097274780273 1.4179999828338623
0.690000057220458984 0.798000097274780273 1.4179999828338623
0.701999902725219727 0.798000097274780273 1.4179999828338623
-0.348000049591064453 -0.0299999713897705078 1.42400002479553223
-0.324000000953674316 -0.0299999713897705078 1.42400002479553223
0.276000022888183594 -0.00600004196166992188 1.42400002479553223
0.30000007152557373 -0.00600004196166992188 1.42400002479553223
0.588000059127807617 0.756000041961669922 1.42400002479553223
0.611999988555908203 0.798000097274780273 1.42400002479553223
0.630000114440917969 0.798000097274780273 1.42400002479553223
-0.755999982357025146 -0.0779999494552612305 1.43000006675720215
-0.653999984264373779 -0.0720000267028808594 1.43000006675720215
-0.648000001907348633 -0.0720000267028808594 1.43000006675720215
-0.624000012874603271 -0.0659999847412109375 1.43000006675720215
-0.599999964237213135 -0.0659999847412109375 1.43000006675720215
-0.569999992847442627 -0.0599999427795410156 1.43000006675720215
-0.546000003814697266 -0.0599999427795410156 1.43000006675720215
-0.533999979496002197 -0.0479999780654907227 1.43000006675720215
-0.509999990463256836 -0.0419999361038208008 1.43000006675720215
-0.498000025749206543 -0.0419999361038208008 1.43000006675720215
-0.473999977111816406 -0.0419999361038208008 1.43000006675720215
-0.444000005722045898 -0.0360000133514404297 1.43000006675720215
-0.419999957084655762 -0.0360000133514404297 1.43000006675720215
-0.396000027656555176 -0.0360000133514404297 1.43000006675720215
-0.353999972343444824 -0.0299999713897705078 1.43000006675720215
-0.348000049591064453 -0.0299999713897705078 1.43000006675720215
-0.324000000953674316 -0.0299999713897705078 1.43000006675720215
-0.29999995231628418 -0.0299999713897705078 1.43000006675720215
-0.269999980926513672 -0.0299999713897705078 1.43000006675720215
-0.233999967575073242 -0.0239999294281005859 1.43000006675720215
-0.222000002861022949 -0.0239999294281005859 1.43000006675720215
-0.197999954223632812 -0.0239999294281005859 1.43000006675720215
-0.174000024795532227 -0.0239999294281005859 1.43000006675720215
-0.14999997615814209 -0.0239999294281005859 1.43000006675720215
-0.120000004768371582 -0.0239999294281005859 1.43000006675720215
-0.0779999494552612305 -0.0180000066757202148 1.43000006675720215
-0.0720000267028808594 -0.0180000066757202148 1.43000006675720215
-0.0479999780654907227 -0.0180000066757202148 1.43000006675720215
-0.0239999294281005859 -0.0180000066757202148 1.43000006675720215
0 -0.0180000066757202148 1.43000006675720215
0.0420000553131103516 -0.011999964714050293 1.43000006675720215
0.0540000200271606445 -0.011999964714050293 1.43000006675720215
0.0780000686645507812 -0.011999964714050293 1.43000006675720215
0.108000040054321289 -0.011999964714050293 1.43000006675720215
0.126000046730041504 -0.011999964714050293 1.43000006675720215
0.156000018119812012 -0.011999964714050293 1.43000006675720215
0.180000066757202148 -0.011999964714050293 1.43000006675720215
0.203999996185302734 -0.011999964714050293 1.43000006675720215
0.228000044822692871 -0.011999964714050293 1.43000006675720215
0.264000058174133301 -0.00600004196166992188 1.43000006675720215
0.276000022888183594 -0.00600004196166992188 1.43000006675720215
0.30000007152557373 -0.00600004196166992188 1.43000006675720215
0.330000042915344238 -0.00600004196166992188 1.43000006675720215
0.45000004768371582 0 1.43000006675720215
0.480000019073486328 0.00600004196166992188 1.43000006675720215
0.503999948501586914 0.00600004196166992188 1.43000006675720215
0.528000116348266602 0.00600004196166992188 1.43000006675720215
0.552000045776367188 0.00600004196166992188 1.43000006675720215
0.575999975204467773 0.00600004196166992188 1.43000006675720215
0.605999946594238281 0.00600004196166992188 1.43000006675720215
0.630000114440917969 0.00600004196166992188 1.43000006675720215
0.654000043869018555 0.00600004196166992188 1.43000006675720215
0.677999973297119141 0.00600004196166992188 1.43000006675720215
0.701999902725219727 0.00600004196166992188 1.43000006675720215
0.726000070571899414 0.00600004196166992188 1.43000006675720215
0.75 0.00600004196166992188 1.43000006675720215
0.809999942779541016 0.011999964714050293 1.43000006675720215
0.828000068664550781 0.011999964714050293 1.43000006675720215
0.888000011444091797 0.0180000066757202148 1.43000006675720215
0.930000066757202148 0.0240000486373901367 1.43000006675720215
-0.522000014781951904 0.732000112533569336 1.43000006675720215
-0.498000025749206543 0.737999916076660156 1.43000006675720215
-0.467999935150146484 0.743999958038330078 1.43000006675720215
-0.444000005722045898 0.743999958038330078 1.43000006675720215
-0.473999977111816406 0.75 1.43000006675720215
-0.444000005722045898 0.75 1.43000006675720215
-0.419999957084655762 0.75 1.43000006675720215
0.594000101089477539 0.756000041961669922 1.43000006675720215
0.569999933242797852 0.773999929428100586 1.43000006675720215
0.564000129699707031 0.779999971389770508 1.43000006675720215
0.75 0.78600001335144043 1.43000006675720215
0.582000017166137695 0.792000055313110352 1.43000006675720215
0.660000085830688477 0.792000055313110352 1.43000006675720215
0.677999973297119141 0.792000055313110352 1.43000006675720215
0.701999902725219727 0.792000055313110352 1.43000006675720215
0.726000070571899414 0.792000055313110352 1.43000006675720215
0.533999919891357422 0.798000097274780273 1.43000006675720215
0.611999988555908203 0.798000097274780273 1.43000006675720215
0.630000114440917969 0.798000097274780273 1.43000006675720215
0.546000003814697266 0.803999900817871094 1.43000006675720215
0.569999933242797852 0.803999900817871094 1.43000006675720215
0.575999975204467773 0.803999900817871094 1.43000006675720215
0.605999946594238281 0.803999900817871094 1.43000006675720215
0.635999917984008789 0.803999900817871094 1.43000006675720215
-0.744000017642974854 -0.0779999494552612305 1.43599998950958252
-0.71399998664855957 -0.0779999494552612305 1.43599998950958252
-0.695999979972839355 -0.0779999494552612305 1.43599998950958252
-0.245999932289123535 -0.0299999713897705078 1.43599998950958252
-0.222000002861022949 -0.0299999713897705078 1.43599998950958252
-0.197999954223632812 -0.0299999713897705078 1.43599998950958252
0.437999963760375977 0 1.43599998950958252
0.911999940872192383 0.0240000486373901367 1.43599998950958252
-0.480000019073486328 0.75 1.43599998950958252
0.605999946594238281 0.762000083923339844 1.43599998950958252
-0.648000001907348633 -0.0779999494552612305 1.44200003147125244
-0.174000024795532227 -0.0299999713897705078 1.44200003147125244
-0.14999997615814209 -0.0299999713897705078 1.44200003147125244
0.353999972343444824 -0.011999964714050293 1.44200003147125244
0.444000005722045898 -0.00600004196166992188 1.44200003147125244
0.45000004768371582 -0.00600004196166992188 1.44200003147125244
0.78600001335144043 0.00600004196166992188 1.44200003147125244
0.870000123977661133 0.0180000066757202148 1.44200003147125244
-0.533999979496002197 0.726000070571899414 1.44200003147125244
-0.419999957084655762 0.743999958038330078 1.44200003147125244
0.762000083923339844 0.773999929428100586 1.44200003147125244
-0.671999990940093994 -0.0779999494552612305 1.44799995422363281
-0.522000014781951904 -0.0540000200271606445 1.44799995422363281
-0.120000004768371582 -0.0299999713897705078 1.44799995422363281
-0.0959999561309814453 -0.0299999713897705078 1.44799995422363281
-0.0720000267028808594 -0.0299999713897705078 1.44799995422363281
0.516000032424926758 -0.00600004196166992188 1.44799995422363281
0.528000116348266602 -0.00600004196166992188 1.44799995422363281
0.552000045776367188 -0.00600004196166992188 1.44799995422363281
0.575999975204467773 -0.00600004196166992188 1.44799995422363281
0.660000085830688477 -0.101999998092651367 1.45399999618530273
0.660000085830688477 -0.0959999561309814453 1.45399999618530273
-0.779999971389770508 -0.0900000333786010742 1.45399999618530273
-0.768000006675720215 -0.0900000333786010742 1.45399999618530273
-0.75 -0.0839999914169311523 1.45399999618530273
-0.719999969005584717 -0.0839999914169311523 1.45399999618530273
-0.684000015258789062 -0.0779999494552612305 1.45399999618530273
-0.629999995231628418 -0.0779999494552612305 1.45399999618530273
-0.624000012874603271 -0.0779999494552612305 1.45399999618530273
-0.599999964237213135 -0.0779999494552612305 1.45399999618530273
-0.587999999523162842 -0.0720000267028808594 1.45399999618530273
-0.569999992847442627 -0.0720000267028808594 1.45399999618530273
-0.546000003814697266 -0.0720000267028808594 1.45399999618530273
-0.522000014781951904 -0.0540000200271606445 1.45399999618530273
-0.498000025749206543 -0.0540000200271606445 1.45399999618530273
-0.462000012397766113 -0.0479999780654907227 1.45399999618530273
-0.444000005722045898 -0.0479999780654907227 1.45399999618530273
-0.419999957084655762 -0.0479999780654907227 1.45399999618530273
-0.371999979019165039 -0.0419999361038208008 1.45399999618530273
-0.348000049591064453 -0.0419999361038208008 1.45399999618530273
-0.324000000953674316 -0.0419999361038208008 1.45399999618530273
-0.29999995231628418 -0.0419999361038208008 1.45399999618530273
-0.26399993896484375 -0.0360000133514404297 1.45399999618530273
-0.245999932289123535 -0.0360000133514404297 1.45399999618530273
-0.222000002861022949 -0.0360000133514404297 1.45399999618530273
-0.197999954223632812 -0.0360000133514404297 1.45399999618530273
-0.174000024795532227 -0.0360000133514404297 1.45399999618530273
-0.14999997615814209 -0.0360000133514404297 1.45399999618530273
-0.120000004768371582 -0.0299999713897705078 1.45399999618530273
-0.0959999561309814453 -0.0299999713897705078 1.45399999618530273
-0.0720000267028808594 -0.0299999713897705078 1.45399999618530273
-0.0479999780654907227 -0.0299999713897705078 1.45399999618530273
-0.0239999294281005859 -0.0299999713897705078 1.45399999618530273
0 -0.0299999713897705078 1.45399999618530273
0.011999964714050293 -0.0239999294281005859 1.45399999618530273
0.0299999713897705078 -0.0239999294281005859 1.45399999618530273
0.0540000200271606445 -0.0239999294281005859 1.45399999618530273
0.0780000686645507812 -0.0239999294281005859 1.45399999618530273
0.101999998092651367 -0.0239999294281005859 1.45399999618530273
0.126000046730041504 -0.0239999294281005859 1.45399999618530273
0.156000018119812012 -0.0239999294281005859 1.45399999618530273
0.180000066757202148 -0.0239999294281005859 1.45399999618530273
0.210000038146972656 -0.0239999294281005859 1.45399999618530273
0.246000051498413086 -0.0180000066757202148 1.45399999618530273
0.251999974250793457 -0.0180000066757202148 1.45399999618530273
0.276000022888183594 -0.0180000066757202148 1.45399999618530273
0.30000007152557373 -0.0180000066757202148 1.45399999618530273
0.330000042915344238 -0.0180000066757202148 1.45399999618530273
0.360000014305114746 -0.011999964714050293 1.45399999618530273
0.420000076293945312 -0.011999964714050293 1.45399999618530273
0.425999999046325684 -0.011999964714050293 1.45399999618530273
0.455999970436096191 -0.00600004196166992188 1.45399999618530273
0.480000019073486328 -0.00600004196166992188 1.45399999618530273
0.503999948501586914 -0.00600004196166992188 1.45399999618530273
0.528000116348266602 -0.00600004196166992188 1.45399999618530273
0.552000045776367188 -0.00600004196166992188 1.45399999618530273
0.575999975204467773 -0.00600004196166992188 1.45399999618530273
0.605999946594238281 -0.00600004196166992188 1.45399999618530273
0.630000114440917969 -0.00600004196166992188 1.45399999618530273
0.654000043869018555 -0.00600004196166992188 1.45399999618530273
0.701999902725219727 0 1.45399999618530273
0.756000041961669922 0.00600004196166992188 1.45399999618530273
0.798000097274780273 0.011999964714050293 1.45399999618530273
0.803999900817871094 0.011999964714050293 1.45399999618530273
-0.546000003814697266 0.720000028610229492 1.45399999618530273
-0.546000003814697266 0.726000070571899414 1.45399999618530273
-0.522000014781951904 0.726000070571899414 1.45399999618530273
-0.498000025749206543 0.737999916076660156 1.45399999618530273
-0.473999977111816406 0.737999916076660156 1.45399999618530273
-0.444000005722045898 0.737999916076660156 1.45399999618530273
-0.407999992370605469 0.737999916076660156 1.45399999618530273
-0.425999999046325684 0.75 1.45399999618530273
0.618000030517578125 0.773999929428100586 1.45399999618530273
0.756000041961669922 0.773999929428100586 1.45399999618530273
0.618000030517578125 0.779999971389770508 1.45399999618530273
0.671999931335449219 0.779999971389770508 1.45399999618530273
0.677999973297119141 0.779999971389770508 1.45399999618530273
0.701999902725219727 0.779999971389770508 1.45399999618530273
0.726000070571899414 0.779999971389770508 1.45399999618530273
0.75 0.779999971389770508 1.45399999618530273
0.630000114440917969 0.78600001335144043 1.45399999618530273
0.654000043869018555 -0.0720000267028808594 1.46000003814697266
-0.473999977111816406 -0.0540000200271606445 1.46000003814697266
-0.396000027656555176 -0.0479999780654907227 1.46000003814697266
0.0299999713897705078 -0.0299999713897705078 1.46000003814697266
0.0540000200271606445 -0.0299999713897705078 1.46000003814697266
0.0780000686645507812 -0.0299999713897705078 1.46000003814697266
-0.557999968528747559 0.71399998664855957 1.46000003814697266
0.726000070571899414 0.773999929428100586 1.46000003814697266
0.648000001907348633 -0.108000040054321289 1.46600008010864258
0.648000001907348633 -0.0959999561309814453 1.46600008010864258
-0.659999966621398926 -0.0839999914169311523 1.46600008010864258
0.648000001907348633 -0.0720000267028808594 1.46600008010864258
-0.444000005722045898 -0.0540000200271606445 1.46600008010864258
-0.419999957084655762 -0.0540000200271606445 1.46600008010864258
0.648000001907348633 -0.0479999780654907227 1.46600008010864258
0.654000043869018555 -0.0479999780654907227 1.46600008010864258
0.101999998092651367 -0.0299999713897705078 1.46600008010864258
0.126000046730041504 -0.0299999713897705078 1.46600008010864258
0.156000018119812012 -0.0299999713897705078 1.46600008010864258
0.180000066757202148 -0.0299999713897705078 1.46600008010864258
0.402000069618225098 -0.0299999713897705078 1.46600008010864258
0.743999958038330078 0.00600004196166992188 1.46600008010864258
0.630000114440917969 0.773999929428100586 1.46600008010864258
0.701999902725219727 0.773999929428100586 1.46600008010864258
0.677999973297119141 -0.101999998092651367 1.47200000286102295
0.677999973297119141 -0.0959999561309814453 1.47200000286102295
-0.56400001049041748 -0.0779999494552612305 1.47200000286102295
-0.396000027656555176 -0.0540000200271606445 1.47200000286102295
-0.371999979019165039 -0.0540000200271606445 1.47200000286102295
0.203999996185302734 -0.0299999713897705078 1.47200000286102295
0.228000044822692871 -0.0299999713897705078 1.47200000286102295
0.251999974250793457 -0.0299999713897705078 1.47200000286102295
0.396000027656555176 -0.0239999294281005859 1.47200000286102295
0.696000099182128906 0 1.47200000286102295
0.660000085830688477 0.773999929428100586 1.47200000286102295
0.690000057220458984 0.773999929428100586 1.47200000286102295
0.630000114440917969 -0.11399996280670166 1.47799992561340332
0.654000043869018555 -0.11399996280670166 1.47799992561340332
-0.78600001335144043 -0.101999998092651367 1.47799992561340332
-0.773999989032745361 -0.0959999561309814453 1.47799992561340332
0.635999917984008789 -0.0959999561309814453 1.47799992561340332
-0.75 -0.0900000333786010742 1.47799992561340332
-0.719999969005584717 -0.0900000333786010742 1.47799992561340332
-0.695999979972839355 -0.0900000333786010742 1.47799992561340332
-0.666000008583068848 -0.0839999914169311523 1.47799992561340332
-0.648000001907348633 -0.0839999914169311523 1.47799992561340332
-0.624000012874603271 -0.0839999914169311523 1.47799992561340332
-0.599999964237213135 -0.0839999914169311523 1.47799992561340332
0.677999973297119141 -0.0839999914169311523 1.47799992561340332
-0.569999992847442627 -0.0779999494552612305 1.47799992561340332
-0.539999961853027344 -0.0779999494552612305 1.47799992561340332
-0.533999979496002197 -0.0720000267028808594 1.47799992561340332
0.630000114440917969 -0.0720000267028808594 1.47799992561340332
-0.522000014781951904 -0.0659999847412109375 1.47799992561340332
0.671999931335449219 -0.0659999847412109375 1.47799992561340332
-0.480000019073486328 -0.0599999427795410156 1.47799992561340332
-0.473999977111816406 -0.0599999427795410156 1.47799992561340332
-0.444000005722045898 -0.0599999427795410156 1.47799992561340332
-0.396000027656555176 -0.0540000200271606445 1.47799992561340332
-0.371999979019165039 -0.0540000200271606445 1.47799992561340332
-0.348000049591064453 -0.0540000200271606445 1.47799992561340332
-0.324000000953674316 -0.0540000200271606445 1.47799992561340332
-0.305999994277954102 -0.0479999780654907227 1.47799992561340332
-0.287999987602233887 -0.0479999780654907227 1.47799992561340332
-0.269999980926513672 -0.0479999780654907227 1.47799992561340332
-0.245999932289123535 -0.0479999780654907227 1.47799992561340332
-0.222000002861022949 -0.0479999780654907227 1.47799992561340332
-0.197999954223632812 -0.0479999780654907227 1.47799992561340332
0.635999917984008789 -0.0479999780654907227 1.47799992561340332
0.666000127792358398 -0.0479999780654907227 1.47799992561340332
-0.14999997615814209 -0.0419999361038208008 1.47799992561340332
-0.120000004768371582 -0.0419999361038208008 1.47799992561340332
-0.0959999561309814453 -0.0419999361038208008 1.47799992561340332
-0.0720000267028808594 -0.0419999361038208008 1.47799992561340332
-0.0479999780654907227 -0.0419999361038208008 1.47799992561340332
-0.011999964714050293 -0.0360000133514404297 1.47799992561340332
0.00600004196166992188 -0.0360000133514404297 1.47799992561340332
0.0299999713897705078 -0.0360000133514404297 1.47799992561340332
0.0540000200271606445 -0.0360000133514404297 1.47799992561340332
0.0780000686645507812 -0.0360000133514404297 1.47799992561340332
0.101999998092651367 -0.0360000133514404297 1.47799992561340332
0.126000046730041504 -0.0360000133514404297 1.47799992561340332
0.156000018119812012 -0.0360000133514404297 1.47799992561340332
0.192000031471252441 -0.0299999713897705078 1.47799992561340332
0.203999996185302734 -0.0299999713897705078 1.47799992561340332
0.228000044822692871 -0.0299999713897705078 1.47799992561340332
0.251999974250793457 -0.0299999713897705078 1.47799992561340332
0.276000022888183594 -0.0299999713897705078 1.47799992561340332
0.30000007152557373 -0.0299999713897705078 1.47799992561340332
0.342000007629394531 -0.0299999713897705078 1.47799992561340332
0.407999992370605469 -0.0299999713897705078 1.47799992561340332
0.317999958992004395 -0.0239999294281005859 1.47799992561340332
0.353999972343444824 -0.0239999294281005859 1.47799992561340332
0.378000020980834961 -0.0239999294281005859 1.47799992561340332
0.407999992370605469 -0.0239999294281005859 1.47799992561340332
0.425999999046325684 -0.0239999294281005859 1.47799992561340332
0.455999970436096191 -0.0239999294281005859 1.47799992561340332
0.635999917984008789 -0.0239999294281005859 1.47799992561340332
0.654000043869018555 -0.0239999294281005859 1.47799992561340332
0.480000019073486328 -0.0180000066757202148 1.47799992561340332
0.533999919891357422 -0.0180000066757202148 1.47799992561340332
0.552000045776367188 -0.0180000066757202148 1.47799992561340332
0.588000059127807617 -0.011999964714050293 1.47799992561340332
0.605999946594238281 -0.011999964714050293 1.47799992561340332
0.684000015258789062 0 1.47799992561340332
-0.569999992847442627 0.71399998664855957 1.47799992561340332
-0.546000003814697266 0.720000028610229492 1.47799992561340332
-0.546000003814697266 0.726000070571899414 1.47799992561340332
-0.522000014781951904 0.726000070571899414 1.47799992561340332
-0.498000025749206543 0.726000070571899414 1.47799992561340332
-0.45000004768371582 0.726000070571899414 1.47799992561340332
-0.444000005722045898 0.732000112533569336 1.47799992561340332
-0.419999957084655762 0.732000112533569336 1.47799992561340332
0.666000127792358398 0.762000083923339844 1.47799992561340332
0.75 0.762000083923339844 1.47799992561340332
0.707999944686889648 0.768000125885009766 1.47799992561340332
0.732000112533569336 0.768000125885009766 1.47799992561340332
0.635999917984008789 0.773999929428100586 1.47799992561340332
0.677999973297119141 0.773999929428100586 1.47799992561340332
0.635999917984008789 0.779999971389770508 1.47799992561340332
0.660000085830688477 0.779999971389770508 1.47799992561340332
0.684000015258789062 0.779999971389770508 1.47799992561340332
0.624000072479248047 -0.120000004768371582 1.48399996757507324
0.624000072479248047 -0.0959999561309814453 1.48399996757507324
0.624000072479248047 -0.0720000267028808594 1.48399996757507324
-0.419999957084655762 -0.0599999427795410156 1.48399996757507324
-0.29999995231628418 -0.0540000200271606445 1.48399996757507324
-0.269999980926513672 -0.0540000200271606445 1.48399996757507324
-0.174000024795532227 -0.0479999780654907227 1.48399996757507324
0.624000072479248047 -0.0479999780654907227 1.48399996757507324
0.353999972343444824 -0.0299999713897705078 1.48399996757507324
0.384000062942504883 -0.0299999713897705078 1.48399996757507324
0.425999999046325684 -0.0299999713897705078 1.48399996757507324
-0.575999975204467773 0.707999944686889648 1.48399996757507324
-0.515999972820281982 0.720000028610229492 1.48399996757507324
-0.773999989032745361 -0.101999998092651367 1.49000000953674316
-0.245999932289123535 -0.0540000200271606445 1.49000000953674316
-0.222000002861022949 -0.0540000200271606445 1.49000000953674316
-0.485999941825866699 0.720000028610229492 1.49000000953674316
-0.401999950408935547 0.720000028610229492 1.49000000953674316
-0.396000027656555176 0.726000070571899414 1.49000000953674316
0.611999988555908203 -0.126000046730041504 1.49600005149841309
-0.804000020027160645 -0.101999998092651367 1.49600005149841309
-0.197999954223632812 -0.0540000200271606445 1.49600005149841309
-0.174000024795532227 -0.0540000200271606445 1.49600005149841309
0.509999990463256836 -0.0239999294281005859 1.49600005149841309
-0.425999999046325684 0.71399998664855957 1.49600005149841309
-0.396000027656555176 0.71399998664855957 1.49600005149841309
-0.473999977111816406 0.720000028610229492 1.49600005149841309
0.599999904632568359 -0.126000046730041504 1.50199997425079346
0.605999946594238281 -0.126000046730041504 1.50199997425079346
0.599999904632568359 -0.120000004768371582 1.50199997425079346
0.605999946594238281 -0.120000004768371582 1.50199997425079346
0.648000001907348633 -0.120000004768371582 1.50199997425079346
0.660000085830688477 -0.11399996280670166 1.50199997425079346
-0.804000020027160645 -0.101999998092651367 1.50199997425079346
-0.773999989032745361 -0.101999998092651367 1.50199997425079346
-0.726000010967254639 -0.0959999561309814453 1.50199997425079346
-0.719999969005584717 -0.0959999561309814453 1.50199997425079346
0.599999904632568359 -0.0959999561309814453 1.50199997425079346
0.605999946594238281 -0.0959999561309814453 1.50199997425079346
-0.677999973297119141 -0.0900000333786010742 1.50199997425079346
-0.671999990940093994 -0.0900000333786010742 1.50199997425079346
-0.648000001907348633 -0.0900000333786010742 1.50199997425079346
-0.593999981880187988 -0.0839999914169311523 1.50199997425079346
-0.551999986171722412 -0.0839999914169311523 1.50199997425079346
-0.533999979496002197 -0.0779999494552612305 1.50199997425079346
-0.522000014781951904 -0.0779999494552612305 1.50199997425079346
-0.504000008106231689 -0.0720000267028808594 1.50199997425079346
-0.498000025749206543 -0.0720000267028808594 1.50199997425079346
-0.473999977111816406 -0.0720000267028808594 1.50199997425079346
0.605999946594238281 -0.0720000267028808594 1.50199997425079346
-0.425999999046325684 -0.0659999847412109375 1.50199997425079346
-0.414000034332275391 -0.0659999847412109375 1.50199997425079346
-0.396000027656555176 -0.0659999847412109375 1.50199997425079346
-0.371999979019165039 -0.0659999847412109375 1.50199997425079346
-0.348000049591064453 -0.0659999847412109375 1.50199997425079346
-0.317999958992004395 -0.0599999427795410156 1.50199997425079346
-0.29999995231628418 -0.0599999427795410156 1.50199997425079346
-0.269999980926513672 -0.0599999427795410156 1.50199997425079346
-0.245999932289123535 -0.0599999427795410156 1.50199997425079346
-0.222000002861022949 -0.0599999427795410156 1.50199997425079346
-0.192000031471252441 -0.0540000200271606445 1.50199997425079346
-0.174000024795532227 -0.0540000200271606445 1.50199997425079346
-0.14999997615814209 -0.0540000200271606445 1.50199997425079346
-0.120000004768371582 -0.0540000200271606445 1.50199997425079346
-0.0959999561309814453 -0.0540000200271606445 1.50199997425079346
-0.108000040054321289 -0.0479999780654907227 1.50199997425079346
-0.0720000267028808594 -0.0479999780654907227 1.50199997425079346
-0.0479999780654907227 -0.0479999780654907227 1.50199997425079346
-0.0239999294281005859 -0.0479999780654907227 1.50199997425079346
0 -0.0479999780654907227 1.50199997425079346
0.0299999713897705078 -0.0479999780654907227 1.50199997425079346
0.0540000200271606445 -0.0479999780654907227 1.50199997425079346
0.0780000686645507812 -0.0479999780654907227 1.50199997425079346
0.101999998092651367 -0.0479999780654907227 1.50199997425079346
0.269999980926513672 -0.0479999780654907227 1.50199997425079346
0.605999946594238281 -0.0479999780654907227 1.50199997425079346
0.131999969482421875 -0.0419999361038208008 1.50199997425079346
0.162000060081481934 -0.0419999361038208008 1.50199997425079346
0.180000066757202148 -0.0419999361038208008 1.50199997425079346
0.203999996185302734 -0.0419999361038208008 1.50199997425079346
0.228000044822692871 -0.0419999361038208008 1.50199997425079346
0.276000022888183594 -0.0419999361038208008 1.50199997425079346
0.30000007152557373 -0.0419999361038208008 1.50199997425079346
0.366000056266784668 -0.0419999361038208008 1.50199997425079346
0.378000020980834961 -0.0419999361038208008 1.50199997425079346
0.330000042915344238 -0.0360000133514404297 1.50199997425079346
0.599999904632568359 -0.0360000133514404297 1.50199997425079346
0.666000127792358398 -0.0360000133514404297 1.50199997425079346
0.432000041007995605 -0.0299999713897705078 1.50199997425079346
0.48600006103515625 -0.0239999294281005859 1.50199997425079346
0.564000129699707031 -0.0239999294281005859 1.50199997425079346
0.575999975204467773 -0.0239999294281005859 1.50199997425079346
0.605999946594238281 -0.0239999294281005859 1.50199997425079346
0.666000127792358398 -0.0239999294281005859 1.50199997425079346
0.528000116348266602 -0.0180000066757202148 1.50199997425079346
-0.599999964237213135 0.696000099182128906 1.50199997425079346
-0.599999964237213135 0.701999902725219727 1.50199997425079346
-0.569999992847442627 0.701999902725219727 1.50199997425079346
-0.546000003814697266 0.71399998664855957 1.50199997425079346
-0.522000014781951904 0.71399998664855957 1.50199997425079346
-0.498000025749206543 0.71399998664855957 1.50199997425079346
-0.473999977111816406 0.71399998664855957 1.50199997425079346
-0.437999963760375977 0.71399998664855957 1.50199997425079346
-0.419999957084655762 0.71399998664855957 1.50199997425079346
-0.396000027656555176 0.71399998664855957 1.50199997425079346
-0.539999961853027344 0.726000070571899414 1.50199997425079346
-0.473999977111816406 0.726000070571899414 1.50199997425079346
-0.437999963760375977 0.726000070571899414 1.50199997425079346
-0.414000034332275391 0.726000070571899414 1.50199997425079346
0.720000028610229492 0.756000041961669922 1.50199997425079346
0.726000070571899414 0.756000041961669922 1.50199997425079346
0.696000099182128906 0.762000083923339844 1.50199997425079346
0.648000001907348633 0.773999929428100586 1.50199997425079346
0.630000114440917969 -0.126000046730041504 1.50800001621246338
0.594000101089477539 -0.0720000267028808594 1.50800001621246338
-0.0720000267028808594 -0.0540000200271606445 1.50800001621246338
-0.0479999780654907227 -0.0540000200271606445 1.50800001621246338
-0.0239999294281005859 -0.0540000200271606445 1.50800001621246338
0 -0.0540000200271606445 1.50800001621246338
0.52200007438659668 -0.0180000066757202148 1.50800001621246338
-0.611999988555908203 0.696000099182128906 1.50800001621246338
-0.779999971389770508 -0.108000040054321289 1.5140000581741333
-0.75 -0.101999998092651367 1.5140000581741333
-0.624000012874603271 -0.0900000333786010742 1.5140000581741333
-0.498000025749206543 -0.0779999494552612305 1.5140000581741333
-0.473999977111816406 -0.0779999494552612305 1.5140000581741333
0.0299999713897705078 -0.0540000200271606445 1.5140000581741333
0.0540000200271606445 -0.0540000200271606445 1.5140000581741333
0.0780000686645507812 -0.0540000200271606445 1.5140000581741333
0.101999998092651367 -0.0540000200271606445 1.5140000581741333
0.126000046730041504 -0.0540000200271606445 1.5140000581741333
0.156000018119812012 -0.0540000200271606445 1.5140000581741333
0.180000066757202148 -0.0540000200271606445 1.5140000581741333
0.203999996185302734 -0.0540000200271606445 1.5140000581741333
0.402000069618225098 -0.0360000133514404297 1.5140000581741333
0.569999933242797852 -0.0299999713897705078 1.5140000581741333
0.468000054359436035 -0.0239999294281005859 1.5140000581741333
-0.444000005722045898 -0.0779999494552612305 1.51999998092651367
0.251999974250793457 -0.0540000200271606445 1.51999998092651367
0.569999933242797852 -0.138000011444091797 1.52600002288818359
0.575999975204467773 -0.138000011444091797 1.52600002288818359
0.618000030517578125 -0.131999969482421875 1.52600002288818359
0.569999933242797852 -0.120000004768371582 1.52600002288818359
0.575999975204467773 -0.120000004768371582 1.52600002288818359
-0.768000006675720215 -0.108000040054321289 1.52600002288818359
-0.744000017642974854 -0.101999998092651367 1.52600002288818359
-0.719999969005584717 -0.101999998092651367 1.52600002288818359
-0.684000015258789062 -0.0959999561309814453 1.52600002288818359
-0.666000008583068848 -0.0959999561309814453 1.52600002288818359
-0.648000001907348633 -0.0959999561309814453 1.52600002288818359
0.569999933242797852 -0.0959999561309814453 1.52600002288818359
0.575999975204467773 -0.0959999561309814453 1.52600002288818359
-0.624000012874603271 -0.0900000333786010742 1.52600002288818359
-0.599999964237213135 -0.0900000333786010742 1.52600002288818359
-0.551999986171722412 -0.0900000333786010742 1.52600002288818359
-0.546000003814697266 -0.0900000333786010742 1.52600002288818359
-0.522000014781951904 -0.0839999914169311523 1.52600002288818359
-0.498000025749206543 -0.0839999914169311523 1.52600002288818359
-0.473999977111816406 -0.0839999914169311523 1.52600002288818359
-0.444000005722045898 -0.0779999494552612305 1.52600002288818359
-0.419999957084655762 -0.0779999494552612305 1.52600002288818359
-0.396000027656555176 -0.0779999494552612305 1.52600002288818359
-0.348000049591064453 -0.0720000267028808594 1.52600002288818359
-0.324000000953674316 -0.0720000267028808594 1.52600002288818359
-0.29999995231628418 -0.0720000267028808594 1.52600002288818359
-0.269999980926513672 -0.0720000267028808594 1.52600002288818359
0.569999933242797852 -0.0720000267028808594 1.52600002288818359
0.575999975204467773 -0.0720000267028808594 1.52600002288818359
-0.245999932289123535 -0.0659999847412109375 1.52600002288818359
-0.222000002861022949 -0.0659999847412109375 1.52600002288818359
-0.197999954223632812 -0.0659999847412109375 1.52600002288818359
-0.174000024795532227 -0.0659999847412109375 1.52600002288818359
-0.14999997615814209 -0.0659999847412109375 1.52600002288818359
-0.120000004768371582 -0.0659999847412109375 1.52600002288818359
-0.0959999561309814453 -0.0599999427795410156 1.52600002288818359
-0.0720000267028808594 -0.0599999427795410156 1.52600002288818359
-0.0479999780654907227 -0.0599999427795410156 1.52600002288818359
-0.0239999294281005859 -0.0599999427795410156 1.52600002288818359
0 -0.0599999427795410156 1.52600002288818359
0.0299999713897705078 -0.0599999427795410156 1.52600002288818359
0.0540000200271606445 -0.0599999427795410156 1.52600002288818359
0.0780000686645507812 -0.0599999427795410156 1.52600002288818359
0.101999998092651367 -0.0599999427795410156 1.52600002288818359
0.126000046730041504 -0.0599999427795410156 1.52600002288818359
0.156000018119812012 -0.0599999427795410156 1.52600002288818359
0.180000066757202148 -0.0599999427795410156 1.52600002288818359
0.210000038146972656 -0.0540000200271606445 1.52600002288818359
0.228000044822692871 -0.0540000200271606445 1.52600002288818359
0.251999974250793457 -0.0540000200271606445 1.52600002288818359
0.282000064849853516 -0.0479999780654907227 1.52600002288818359
0.582000017166137695 -0.0479999780654907227 1.52600002288818359
0.305999994277954102 -0.0419999361038208008 1.52600002288818359
0.330000042915344238 -0.0419999361038208008 1.52600002288818359
0.366000056266784668 -0.0419999361038208008 1.52600002288818359
0.384000062942504883 -0.0419999361038208008 1.52600002288818359
0.402000069618225098 -0.0360000133514404297 1.52600002288818359
0.569999933242797852 -0.0299999713897705078 1.52600002288818359
0.558000087738037109 -0.0239999294281005859 1.52600002288818359
-0.642000019550323486 0.696000099182128906 1.52600002288818359
-0.611999988555908203 0.696000099182128906 1.52600002288818359
-0.593999981880187988 0.696000099182128906 1.52600002288818359
-0.582000017166137695 0.701999902725219727 1.52600002288818359
-0.569999992847442627 0.701999902725219727 1.52600002288818359
-0.546000003814697266 0.701999902725219727 1.52600002288818359
-0.522000014781951904 0.701999902725219727 1.52600002288818359
-0.498000025749206543 0.701999902725219727 1.52600002288818359
-0.473999977111816406 0.701999902725219727 1.52600002288818359
-0.444000005722045898 0.701999902725219727 1.52600002288818359
-0.407999992370605469 0.701999902725219727 1.52600002288818359
-0.396000027656555176 0.701999902725219727 1.52600002288818359
-0.821999967098236084 -0.11399996280670166 1.53200006484985352
-0.78600001335144043 -0.11399996280670166 1.53200006484985352
-0.695999979972839355 -0.101999998092651367 1.53200006484985352
-0.371999979019165039 -0.0779999494552612305 1.53200006484985352
-0.348000049591064453 -0.0779999494552612305 1.53200006484985352
-0.659999966621398926 0.684000015258789062 1.53200006484985352
-0.569999992847442627 0.696000099182128906 1.53200006484985352
-0.546000003814697266 0.696000099182128906 1.53200006484985352
-0.45000004768371582 0.696000099182128906 1.53200006484985352
-0.648000001907348633 0.701999902725219727 1.53200006484985352
-0.624000012874603271 0.701999902725219727 1.53200006484985352
-0.287999987602233887 0.720000028610229492 1.53200006484985352
-0.671999990940093994 -0.101999998092651367 1.53799998760223389
-0.324000000953674316 -0.0779999494552612305 1.53799998760223389
-0.29999995231628418 -0.0779999494552612305 1.53799998760223389
-0.444000005722045898 0.696000099182128906 1.53799998760223389
-0.371999979019165039 0.696000099182128906 1.53799998760223389
-0.653999984264373779 0.701999902725219727 1.53799998760223389
-0.371999979019165039 0.701999902725219727 1.53799998760223389
0.546000003814697266 -0.143999934196472168 1.54400002956390381
0.546000003814697266 -0.120000004768371582 1.54400002956390381
-0.648000001907348633 -0.101999998092651367 1.54400002956390381
-0.624000012874603271 -0.101999998092651367 1.54400002956390381
-0.269999980926513672 -0.0779999494552612305 1.54400002956390381
-0.245999932289123535 -0.0779999494552612305 1.54400002956390381
-0.222000002861022949 -0.0779999494552612305 1.54400002956390381
-0.684000015258789062 0.539999961853027344 1.54400002956390381
-0.515999972820281982 0.696000099182128906 1.54400002956390381
-0.498000025749206543 0.696000099182128906 1.54400002956390381
-0.419999957084655762 0.696000099182128906 1.54400002956390381
-0.281999945640563965 0.726000070571899414 1.54400002956390381
-0.833999991416931152 -0.120000004768371582 1.54999995231628418
-0.599999964237213135 -0.101999998092651367 1.54999995231628418
0.539999961853027344 -0.0959999561309814453 1.54999995231628418
-0.197999954223632812 -0.0779999494552612305 1.54999995231628418
-0.174000024795532227 -0.0779999494552612305 1.54999995231628418
-0.14999997615814209 -0.0779999494552612305 1.54999995231628418
-0.101999998092651367 -0.0779999494552612305 1.54999995231628418
-0.0959999561309814453 -0.0779999494552612305 1.54999995231628418
0.546000003814697266 -0.0720000267028808594 1.54999995231628418
0.546000003814697266 -0.0239999294281005859 1.54999995231628418
-0.671999990940093994 0.528000116348266602 1.54999995231628418
-0.684000015258789062 0.552000045776367188 1.54999995231628418
-0.396000027656555176 0.696000099182128906 1.54999995231628418
-0.348000049591064453 0.701999902725219727 1.54999995231628418
-0.269999980926513672 0.707999944686889648 1.54999995231628418
-0.317999958992004395 0.720000028610229492 1.54999995231628418
-0.269999980926513672 0.726000070571899414 1.54999995231628418
0.528000116348266602 -0.14999997615814209 1.5559999942779541
0.552000045776367188 -0.14999997615814209 1.5559999942779541
0.582000017166137695 -0.143999934196472168 1.5559999942779541
-0.828000009059906006 -0.120000004768371582 1.5559999942779541
-0.821999967098236084 -0.120000004768371582 1.5559999942779541
-0.797999978065490723 -0.120000004768371582 1.5559999942779541
-0.773999989032745361 -0.120000004768371582 1.5559999942779541
0.533999919891357422 -0.120000004768371582 1.5559999942779541
-0.75 -0.11399996280670166 1.5559999942779541
-0.719999969005584717 -0.11399996280670166 1.5559999942779541
-0.695999979972839355 -0.11399996280670166 1.5559999942779541
-0.671999990940093994 -0.108000040054321289 1.5559999942779541
-0.648000001907348633 -0.108000040054321289 1.5559999942779541
-0.624000012874603271 -0.108000040054321289 1.5559999942779541
-0.599999964237213135 -0.101999998092651367 1.5559999942779541
-0.569999992847442627 -0.101999998092651367 1.5559999942779541
-0.546000003814697266 -0.101999998092651367 1.5559999942779541
-0.515999972820281982 -0.0959999561309814453 1.5559999942779541
-0.498000025749206543 -0.0959999561309814453 1.5559999942779541
-0.473999977111816406 -0.0959999561309814453 1.5559999942779541
0.533999919891357422 -0.0959999561309814453 1.5559999942779541
-0.414000034332275391 -0.0900000333786010742 1.5559999942779541
-0.396000027656555176 -0.0900000333786010742 1.5559999942779541
-0.371999979019165039 -0.0900000333786010742 1.5559999942779541
-0.335999965667724609 -0.0839999914169311523 1.5559999942779541
-0.324000000953674316 -0.0839999914169311523 1.5559999942779541
-0.29999995231628418 -0.0839999914169311523 1.5559999942779541
-0.269999980926513672 -0.0839999914169311523 1.5559999942779541
-0.245999932289123535 -0.0839999914169311523 1.5559999942779541
-0.222000002861022949 -0.0839999914169311523 1.5559999942779541
-0.197999954223632812 -0.0779999494552612305 1.5559999942779541
-0.174000024795532227 -0.0779999494552612305 1.5559999942779541
-0.14999997615814209 -0.0779999494552612305 1.5559999942779541
-0.120000004768371582 -0.0779999494552612305 1.5559999942779541
-0.0959999561309814453 -0.0779999494552612305 1.5559999942779541
-0.0720000267028808594 -0.0779999494552612305 1.5559999942779541
0.011999964714050293 -0.0779999494552612305 1.5559999942779541
0.0299999713897705078 -0.0779999494552612305 1.5559999942779541
0.0540000200271606445 -0.0779999494552612305 1.5559999942779541
-0.131999969482421875 -0.0720000267028808594 1.5559999942779541
-0.120000004768371582 -0.0720000267028808594 1.5559999942779541
-0.0419999361038208008 -0.0720000267028808594 1.5559999942779541
-0.0239999294281005859 -0.0720000267028808594 1.5559999942779541
0 -0.0720000267028808594 1.5559999942779541
0.0299999713897705078 -0.0720000267028808594 1.5559999942779541
0.0540000200271606445 -0.0720000267028808594 1.5559999942779541
0.0780000686645507812 -0.0720000267028808594 1.5559999942779541
0.101999998092651367 -0.0720000267028808594 1.5559999942779541
0.126000046730041504 -0.0720000267028808594 1.5559999942779541
0.546000003814697266 -0.0720000267028808594 1.5559999942779541
0.552000045776367188 -0.0720000267028808594 1.5559999942779541
0.203999996185302734 -0.0540000200271606445 1.5559999942779541
0.582000017166137695 -0.0540000200271606445 1.5559999942779541
0.539999961853027344 -0.0299999713897705078 1.5559999942779541
0.552000045776367188 -0.0299999713897705078 1.5559999942779541
0.539999961853027344 -0.0239999294281005859 1.5559999942779541
-0.666000008583068848 0.52200007438659668 1.5559999942779541
-0.689999997615814209 0.528000116348266602 1.5559999942779541
-0.671999990940093994 0.528000116348266602 1.5559999942779541
-0.648000001907348633 0.533999919891357422 1.5559999942779541
-0.684000015258789062 0.552000045776367188 1.5559999942779541
-0.666000008583068848 0.677999973297119141 1.5559999942779541
-0.648000001907348633 0.684000015258789062 1.5559999942779541
-0.599999964237213135 0.684000015258789062 1.5559999942779541
-0.551999986171722412 0.684000015258789062 1.5559999942779541
-0.491999983787536621 0.684000015258789062 1.5559999942779541
-0.624000012874603271 0.690000057220458984 1.5559999942779541
-0.546000003814697266 0.690000057220458984 1.5559999942779541
-0.522000014781951904 0.690000057220458984 1.5559999942779541
-0.473999977111816406 0.690000057220458984 1.5559999942779541
-0.444000005722045898 0.690000057220458984 1.5559999942779541
-0.419999957084655762 0.690000057220458984 1.5559999942779541
-0.396000027656555176 0.690000057220458984 1.5559999942779541
-0.371999979019165039 0.696000099182128906 1.5559999942779541
-0.245999932289123535 0.696000099182128906 1.5559999942779541
-0.653999984264373779 0.701999902725219727 1.5559999942779541
-0.437999963760375977 0.701999902725219727 1.5559999942779541
-0.396000027656555176 0.701999902725219727 1.5559999942779541
-0.353999972343444824 0.701999902725219727 1.5559999942779541
-0.348000049591064453 0.701999902725219727 1.5559999942779541
-0.317999958992004395 0.707999944686889648 1.5559999942779541
-0.281999945640563965 0.707999944686889648 1.5559999942779541
-0.269999980926513672 0.707999944686889648 1.5559999942779541
-0.317999958992004395 0.726000070571899414 1.5559999942779541
-0.276000022888183594 0.726000070571899414 1.5559999942779541
