ply
format ascii 1.0
element vertex 767
property float x
property float y
property float z
end_header
-0.0779999494552612305 -0.635999977588653564 2.24000000953674316
-0.0299999713897705078 -0.629999995231628418 2.24000000953674316
0.0299999713897705078 -0.629999995231628418 2.24000000953674316
0.0540000200271606445 -0.629999995231628418 2.24000000953674316
0.0780000686645507812 -0.629999995231628418 2.24000000953674316
0.414000034332275391 -0.606000006198883057 2.24000000953674316
0.425999999046325684 -0.606000006198883057 2.24000000953674316
0.528000116348266602 -0.606000006198883057 2.24000000953674316
0.552000045776367188 -0.606000006198883057 2.24000000953674316
0.539999961853027344 -0.569999992847442627 2.24000000953674316
-1.18799996376037598 0.14999997615814209 2.24000000953674316
-1.16999995708465576 0.14999997615814209 2.24000000953674316
-0.515999972820281982 0.228000044822692871 2.24000000953674316
0.101999998092651367 -0.629999995231628418 2.24600005149841309
0.126000046730041504 -0.629999995231628418 2.24600005149841309
0.162000060081481934 -0.629999995231628418 2.24600005149841309
0.353999972343444824 -0.606000006198883057 2.24600005149841309
0.378000020980834961 -0.606000006198883057 2.24600005149841309
0.575999975204467773 -0.606000006198883057 2.24600005149841309
0.605999946594238281 -0.606000006198883057 2.24600005149841309
0.635999917984008789 -0.606000006198883057 2.24600005149841309
-1.13999998569488525 0.14999997615814209 2.24600005149841309
-1.12199997901916504 0.14999997615814209 2.24600005149841309
-0.797999978065490723 0.174000024795532227 2.24600005149841309
-1.15199995040893555 -0.893999993801116943 2.25199985504150391
-1.13999998569488525 -0.893999993801116943 2.25199985504150391
-1.11000001430511475 -0.893999993801116943 2.25199985504150391
-1.09200000762939453 -0.893999993801116943 2.25199985504150391
-1.09800004959106445 -0.870000004768371582 2.25199985504150391
-0.0779999494552612305 -0.642000019550323486 2.25199985504150391
-0.0659999847412109375 -0.642000019550323486 2.25199985504150391
-0.0239999294281005859 -0.642000019550323486 2.25199985504150391
-0.0299999713897705078 -0.635999977588653564 2.25199985504150391
0.0240000486373901367 -0.635999977588653564 2.25199985504150391
0.0299999713897705078 -0.635999977588653564 2.25199985504150391
0.0540000200271606445 -0.635999977588653564 2.25199985504150391
0.0780000686645507812 -0.635999977588653564 2.25199985504150391
0.101999998092651367 -0.635999977588653564 2.25199985504150391
0.156000018119812012 -0.629999995231628418 2.25199985504150391
0.180000066757202148 -0.629999995231628418 2.25199985504150391
0.203999996185302734 -0.629999995231628418 2.25199985504150391
0.246000051498413086 -0.624000012874603271 2.25199985504150391
0.251999974250793457 -0.624000012874603271 2.25199985504150391
0.276000022888183594 -0.624000012874603271 2.25199985504150391
0.312000036239624023 -0.624000012874603271 2.25199985504150391
0.335999965667724609 -0.61799997091293335 2.25199985504150391
0.414000034332275391 -0.61799997091293335 2.25199985504150391
0.425999999046325684 -0.61799997091293335 2.25199985504150391
0.45000004768371582 -0.61799997091293335 2.25199985504150391
0.480000019073486328 -0.61799997091293335 2.25199985504150391
0.503999948501586914 -0.61799997091293335 2.25199985504150391
0.353999972343444824 -0.611999988555908203 2.25199985504150391
0.378000020980834961 -0.611999988555908203 2.25199985504150391
0.528000116348266602 -0.611999988555908203 2.25199985504150391
0.552000045776367188 -0.611999988555908203 2.25199985504150391
0.575999975204467773 -0.611999988555908203 2.25199985504150391
0.605999946594238281 -0.611999988555908203 2.25199985504150391
0.630000114440917969 -0.606000006198883057 2.25199985504150391
0.654000043869018555 -0.606000006198883057 2.25199985504150391
0.677999973297119141 -0.606000006198883057 2.25199985504150391
0.696000099182128906 -0.599999964237213135 2.25199985504150391
0.701999902725219727 -0.599999964237213135 2.25199985504150391
0.726000070571899414 -0.599999964237213135 2.25199985504150391
0.75 -0.599999964237213135 2.25199985504150391
0.78600001335144043 -0.599999964237213135 2.25199985504150391
0.803999900817871094 -0.599999964237213135 2.25199985504150391
0.851999998092651367 -0.599999964237213135 2.25199985504150391
0.407999992370605469 -0.593999981880187988 2.25199985504150391
0.432000041007995605 -0.593999981880187988 2.25199985504150391
0.828000068664550781 -0.593999981880187988 2.25199985504150391
0.45000004768371582 -0.587999999523162842 2.25199985504150391
-1.22399997711181641 0.144000053405761719 2.25199985504150391
-1.1940000057220459 0.14999997615814209 2.25199985504150391
-1.16999995708465576 0.14999997615814209 2.25199985504150391
-1.14600002765655518 0.14999997615814209 2.25199985504150391
-1.12199997901916504 0.14999997615814209 2.25199985504150391
-1.09800004959106445 0.14999997615814209 2.25199985504150391
-1.09200000762939453 0.156000018119812012 2.25199985504150391
-1.07400000095367432 0.156000018119812012 2.25199985504150391
-1.04999995231628418 0.156000018119812012 2.25199985504150391
-1.01999998092651367 0.156000018119812012 2.25199985504150391
-0.995999991893768311 0.156000018119812012 2.25199985504150391
-0.966000020503997803 0.156000018119812012 2.25199985504150391
-0.948000013828277588 0.162000060081481934 2.25199985504150391
-0.924000024795532227 0.167999982833862305 2.25199985504150391
-0.89999997615814209 0.167999982833862305 2.25199985504150391
-0.833999991416931152 0.174000024795532227 2.25199985504150391
-0.821999967098236084 0.174000024795532227 2.25199985504150391
-0.875999987125396729 0.180000066757202148 2.25199985504150391
-0.870000004768371582 0.180000066757202148 2.25199985504150391
-0.846000015735626221 0.180000066757202148 2.25199985504150391
-0.821999967098236084 0.180000066757202148 2.25199985504150391
-0.551999986171722412 0.180000066757202148 2.25199985504150391
-0.546000003814697266 0.180000066757202148 2.25199985504150391
-0.522000014781951904 0.180000066757202148 2.25199985504150391
-0.485999941825866699 0.180000066757202148 2.25199985504150391
-0.473999977111816406 0.180000066757202148 2.25199985504150391
-0.444000005722045898 0.180000066757202148 2.25199985504150391
-0.419999957084655762 0.180000066757202148 2.25199985504150391
-0.396000027656555176 0.180000066757202148 2.25199985504150391
-0.582000017166137695 0.18599998950958252 2.25199985504150391
-0.557999968528747559 0.222000002861022949 2.25199985504150391
-0.522000014781951904 0.228000044822692871 2.25199985504150391
-1.07400000095367432 -0.881999969482421875 2.25799989700317383
0.588000059127807617 -0.642000019550323486 2.25799989700317383
0.126000046730041504 -0.635999977588653564 2.25799989700317383
0.240000009536743164 -0.629999995231628418 2.25799989700317383
0.251999974250793457 -0.629999995231628418 2.25799989700317383
0.294000029563903809 -0.629999995231628418 2.25799989700317383
0.30000007152557373 -0.629999995231628418 2.25799989700317383
0.701999902725219727 -0.606000006198883057 2.25799989700317383
0.726000070571899414 -0.606000006198883057 2.25799989700317383
0.75 -0.606000006198883057 2.25799989700317383
0.792000055313110352 -0.606000006198883057 2.25799989700317383
0.809999942779541016 -0.606000006198883057 2.25799989700317383
0.851999998092651367 -0.606000006198883057 2.25799989700317383
0.875999927520751953 -0.593999981880187988 2.25799989700317383
-1.23600006103515625 0.138000011444091797 2.25799989700317383
-1.07400000095367432 0.14999997615814209 2.25799989700317383
-1.02600002288818359 0.14999997615814209 2.25799989700317383
-0.870000004768371582 0.174000024795532227 2.25799989700317383
-0.437999963760375977 0.174000024795532227 2.25799989700317383
-0.419999957084655762 0.174000024795532227 2.25799989700317383
-0.396000027656555176 0.174000024795532227 2.25799989700317383
-1.14600002765655518 -0.917999982833862305 2.26399993896484375
0.828000068664550781 -0.606000006198883057 2.26399993896484375
-1.01999998092651367 0.14999997615814209 2.26399993896484375
-0.995999991893768311 0.14999997615814209 2.26399993896484375
-0.593999981880187988 0.174000024795532227 2.26399993896484375
-0.485999941825866699 0.174000024795532227 2.26399993896484375
-0.473999977111816406 0.174000024795532227 2.26399993896484375
-0.575999975204467773 0.215999960899353027 2.26399993896484375
-1.11000001430511475 -0.906000018119812012 2.26999998092651367
-0.0659999847412109375 -0.653999984264373779 2.26999998092651367
-0.00600004196166992188 -0.653999984264373779 2.26999998092651367
0.335999965667724609 -0.629999995231628418 2.26999998092651367
0.353999972343444824 -0.629999995231628418 2.26999998092651367
0.396000027656555176 -0.629999995231628418 2.26999998092651367
0.402000069618225098 -0.629999995231628418 2.26999998092651367
0.425999999046325684 -0.629999995231628418 2.26999998092651367
0.45000004768371582 -0.629999995231628418 2.26999998092651367
0.480000019073486328 -0.629999995231628418 2.26999998092651367
0.569999933242797852 -0.629999995231628418 2.26999998092651367
0.875999927520751953 -0.606000006198883057 2.26999998092651367
-0.972000002861022949 0.14999997615814209 2.26999998092651367
-0.569999992847442627 0.174000024795532227 2.26999998092651367
-0.539999961853027344 0.174000024795532227 2.26999998092651367
-0.522000014781951904 0.174000024795532227 2.26999998092651367
-1.11000001430511475 -0.89999997615814209 2.27600002288818359
-1.09800004959106445 -0.89999997615814209 2.27600002288818359
-1.07400000095367432 -0.893999993801116943 2.27600002288818359
-0.0659999847412109375 -0.653999984264373779 2.27600002288818359
-0.0180000066757202148 -0.653999984264373779 2.27600002288818359
0 -0.653999984264373779 2.27600002288818359
0.0299999713897705078 -0.653999984264373779 2.27600002288818359
-0.0659999847412109375 -0.648000001907348633 2.27600002288818359
-0.0239999294281005859 -0.648000001907348633 2.27600002288818359
0.0540000200271606445 -0.648000001907348633 2.27600002288818359
0.0780000686645507812 -0.648000001907348633 2.27600002288818359
0.101999998092651367 -0.648000001907348633 2.27600002288818359
0.126000046730041504 -0.648000001907348633 2.27600002288818359
0.180000066757202148 -0.642000019550323486 2.27600002288818359
0.210000038146972656 -0.642000019550323486 2.27600002288818359
0.228000044822692871 -0.642000019550323486 2.27600002288818359
0.251999974250793457 -0.642000019550323486 2.27600002288818359
0.276000022888183594 -0.642000019550323486 2.27600002288818359
0.317999958992004395 -0.635999977588653564 2.27600002288818359
0.330000042915344238 -0.635999977588653564 2.27600002288818359
0.455999970436096191 -0.635999977588653564 2.27600002288818359
0.353999972343444824 -0.629999995231628418 2.27600002288818359
0.378000020980834961 -0.629999995231628418 2.27600002288818359
0.402000069618225098 -0.629999995231628418 2.27600002288818359
0.480000019073486328 -0.629999995231628418 2.27600002288818359
0.503999948501586914 -0.629999995231628418 2.27600002288818359
0.528000116348266602 -0.629999995231628418 2.27600002288818359
0.552000045776367188 -0.629999995231628418 2.27600002288818359
0.575999975204467773 -0.629999995231628418 2.27600002288818359
0.251999974250793457 -0.624000012874603271 2.27600002288818359
0.605999946594238281 -0.624000012874603271 2.27600002288818359
0.630000114440917969 -0.624000012874603271 2.27600002288818359
0.654000043869018555 -0.624000012874603271 2.27600002288818359
0.696000099182128906 -0.624000012874603271 2.27600002288818359
0.240000009536743164 -0.61799997091293335 2.27600002288818359
0.353999972343444824 -0.61799997091293335 2.27600002288818359
0.701999902725219727 -0.61799997091293335 2.27600002288818359
0.726000070571899414 -0.61799997091293335 2.27600002288818359
0.75 -0.61799997091293335 2.27600002288818359
0.792000055313110352 -0.61799997091293335 2.27600002288818359
0.809999942779541016 -0.61799997091293335 2.27600002288818359
0.839999914169311523 -0.61799997091293335 2.27600002288818359
0.851999998092651367 -0.61799997091293335 2.27600002288818359
0.875999927520751953 -0.606000006198883057 2.27600002288818359
-1.24800002574920654 0.126000046730041504 2.27600002288818359
-1.21799993515014648 0.131999969482421875 2.27600002288818359
-1.1940000057220459 0.131999969482421875 2.27600002288818359
-1.16999995708465576 0.138000011444091797 2.27600002288818359
-1.14600002765655518 0.138000011444091797 2.27600002288818359
-1.12199997901916504 0.138000011444091797 2.27600002288818359
-1.09800004959106445 0.138000011444091797 2.27600002288818359
-1.07400000095367432 0.144000053405761719 2.27600002288818359
-1.04999995231628418 0.144000053405761719 2.27600002288818359
-1.01999998092651367 0.144000053405761719 2.27600002288818359
-0.995999991893768311 0.144000053405761719 2.27600002288818359
-0.972000002861022949 0.144000053405761719 2.27600002288818359
-0.948000013828277588 0.14999997615814209 2.27600002288818359
-0.948000013828277588 0.156000018119812012 2.27600002288818359
-0.924000024795532227 0.156000018119812012 2.27600002288818359
-0.89999997615814209 0.162000060081481934 2.27600002288818359
-0.833999991416931152 0.162000060081481934 2.27600002288818359
-0.821999967098236084 0.162000060081481934 2.27600002288818359
-0.401999950408935547 0.162000060081481934 2.27600002288818359
-0.396000027656555176 0.162000060081481934 2.27600002288818359
-0.870000004768371582 0.167999982833862305 2.27600002288818359
-0.498000025749206543 0.167999982833862305 2.27600002288818359
-0.473999977111816406 0.167999982833862305 2.27600002288818359
-0.444000005722045898 0.167999982833862305 2.27600002288818359
-0.606000006198883057 0.174000024795532227 2.27600002288818359
-0.599999964237213135 0.174000024795532227 2.27600002288818359
-0.569999992847442627 0.174000024795532227 2.27600002288818359
-0.546000003814697266 0.174000024795532227 2.27600002288818359
-0.522000014781951904 0.174000024795532227 2.27600002288818359
-0.815999984741210938 0.180000066757202148 2.27600002288818359
-0.606000006198883057 0.180000066757202148 2.27600002288818359
-0.599999964237213135 0.180000066757202148 2.27600002288818359
-1.15199995040893555 -0.917999982833862305 2.28200006484985352
-1.11599993705749512 -0.912000000476837158 2.28200006484985352
-1.09800004959106445 -0.906000018119812012 2.28200006484985352
-0.0779999494552612305 -0.659999966621398926 2.28200006484985352
0.0540000200271606445 -0.653999984264373779 2.28200006484985352
0.0780000686645507812 -0.653999984264373779 2.28200006484985352
0.101999998092651367 -0.653999984264373779 2.28200006484985352
0.167999982833862305 -0.648000001907348633 2.28200006484985352
0.425999999046325684 -0.635999977588653564 2.28200006484985352
0.605999946594238281 -0.629999995231628418 2.28200006484985352
0.635999917984008789 -0.629999995231628418 2.28200006484985352
0.654000043869018555 -0.629999995231628418 2.28200006484985352
0.684000015258789062 -0.629999995231628418 2.28200006484985352
0.348000049591064453 -0.611999988555908203 2.28200006484985352
-1.25399994850158691 0.120000004768371582 2.28200006484985352
-0.924000024795532227 0.14999997615814209 2.28200006484985352
-1.13400006294250488 -0.906000018119812012 2.28800010681152344
0.126000046730041504 -0.653999984264373779 2.28800010681152344
0.156000018119812012 -0.653999984264373779 2.28800010681152344
0.701999902725219727 -0.629999995231628418 2.28800010681152344
0.803999900817871094 -0.629999995231628418 2.28800010681152344
-0.821999967098236084 0.14999997615814209 2.28800010681152344
0.180000066757202148 -0.653999984264373779 2.29400014877319336
0.203999996185302734 -0.653999984264373779 2.29400014877319336
0.228000044822692871 -0.653999984264373779 2.29400014877319336
0.251999974250793457 -0.653999984264373779 2.29400014877319336
0.276000022888183594 -0.653999984264373779 2.29400014877319336
0.552000045776367188 -0.653999984264373779 2.29400014877319336
0.798000097274780273 -0.635999977588653564 2.29400014877319336
0.726000070571899414 -0.629999995231628418 2.29400014877319336
0.444000005722045898 -0.599999964237213135 2.29400014877319336
0.480000019073486328 -0.593999981880187988 2.29400014877319336
-1.24800002574920654 0.120000004768371582 2.29400014877319336
-1.21799993515014648 0.120000004768371582 2.29400014877319336
-1.16999995708465576 0.120000004768371582 2.29400014877319336
-0.89999997615814209 0.14999997615814209 2.29400014877319336
-0.839999973773956299 0.14999997615814209 2.29400014877319336
-0.437999963760375977 0.18599998950958252 2.29400014877319336
-1.09200000762939453 -0.924000024795532227 2.30000019073486328
-1.07400000095367432 -0.906000018119812012 2.30000019073486328
-1.09800004959106445 -0.89999997615814209 2.30000019073486328
-0.0779999494552612305 -0.666000008583068848 2.30000019073486328
-0.0720000267028808594 -0.666000008583068848 2.30000019073486328
-0.0180000066757202148 -0.666000008583068848 2.30000019073486328
0.00600004196166992188 -0.666000008583068848 2.30000019073486328
0.0360000133514404297 -0.666000008583068848 2.30000019073486328
0.0540000200271606445 -0.666000008583068848 2.30000019073486328
0.108000040054321289 -0.666000008583068848 2.30000019073486328
0.131999969482421875 -0.659999966621398926 2.30000019073486328
0.156000018119812012 -0.659999966621398926 2.30000019073486328
0.180000066757202148 -0.659999966621398926 2.30000019073486328
0.269999980926513672 -0.653999984264373779 2.30000019073486328
0.276000022888183594 -0.653999984264373779 2.30000019073486328
0.30000007152557373 -0.653999984264373779 2.30000019073486328
0.558000087738037109 -0.653999984264373779 2.30000019073486328
0.317999958992004395 -0.648000001907348633 2.30000019073486328
0.342000007629394531 -0.648000001907348633 2.30000019073486328
0.353999972343444824 -0.648000001907348633 2.30000019073486328
0.378000020980834961 -0.648000001907348633 2.30000019073486328
0.402000069618225098 -0.648000001907348633 2.30000019073486328
0.425999999046325684 -0.648000001907348633 2.30000019073486328
0.45000004768371582 -0.648000001907348633 2.30000019073486328
0.552000045776367188 -0.648000001907348633 2.30000019073486328
0.575999975204467773 -0.648000001907348633 2.30000019073486328
0.605999946594238281 -0.648000001907348633 2.30000019073486328
0.491999983787536621 -0.642000019550323486 2.30000019073486328
0.503999948501586914 -0.642000019550323486 2.30000019073486328
0.533999919891357422 -0.642000019550323486 2.30000019073486328
0.630000114440917969 -0.642000019550323486 2.30000019073486328
0.654000043869018555 -0.642000019550323486 2.30000019073486328
0.684000015258789062 -0.642000019550323486 2.30000019073486328
0.701999902725219727 -0.642000019550323486 2.30000019073486328
0.726000070571899414 -0.642000019550323486 2.30000019073486328
0.282000064849853516 -0.635999977588653564 2.30000019073486328
0.792000055313110352 -0.635999977588653564 2.30000019073486328
0.258000016212463379 -0.629999995231628418 2.30000019073486328
0.75 -0.629999995231628418 2.30000019073486328
0.809999942779541016 -0.629999995231628418 2.30000019073486328
0.834000110626220703 -0.629999995231628418 2.30000019073486328
0.378000020980834961 -0.624000012874603271 2.30000019073486328
0.756000041961669922 -0.624000012874603271 2.30000019073486328
0.779999971389770508 -0.624000012874603271 2.30000019073486328
0.815999984741210938 -0.624000012874603271 2.30000019073486328
0.828000068664550781 -0.624000012874603271 2.30000019073486328
0.858000040054321289 -0.624000012874603271 2.30000019073486328
-1.26600003242492676 0.11399996280670166 2.30000019073486328
-1.24800002574920654 0.120000004768371582 2.30000019073486328
-1.22399997711181641 0.120000004768371582 2.30000019073486328
-1.1940000057220459 0.120000004768371582 2.30000019073486328
-1.16999995708465576 0.120000004768371582 2.30000019073486328
-1.14600002765655518 0.120000004768371582 2.30000019073486328
-1.12199997901916504 0.120000004768371582 2.30000019073486328
-1.13999998569488525 0.126000046730041504 2.30000019073486328
-1.12199997901916504 0.126000046730041504 2.30000019073486328
-1.09800004959106445 0.126000046730041504 2.30000019073486328
-1.07400000095367432 0.126000046730041504 2.30000019073486328
-1.04999995231628418 0.126000046730041504 2.30000019073486328
-1.01999998092651367 0.131999969482421875 2.30000019073486328
-0.995999991893768311 0.131999969482421875 2.30000019073486328
-0.972000002861022949 0.131999969482421875 2.30000019073486328
-0.948000013828277588 0.138000011444091797 2.30000019073486328
-0.924000024795532227 0.144000053405761719 2.30000019073486328
-0.828000009059906006 0.144000053405761719 2.30000019073486328
-0.821999967098236084 0.144000053405761719 2.30000019073486328
-0.383999943733215332 0.144000053405761719 2.30000019073486328
-0.89999997615814209 0.14999997615814209 2.30000019073486328
-0.857999980449676514 0.14999997615814209 2.30000019073486328
-0.407999992370605469 0.14999997615814209 2.30000019073486328
-0.89999997615814209 0.156000018119812012 2.30000019073486328
-0.870000004768371582 0.156000018119812012 2.30000019073486328
-0.846000015735626221 0.156000018119812012 2.30000019073486328
-0.821999967098236084 0.156000018119812012 2.30000019073486328
-0.61799997091293335 0.156000018119812012 2.30000019073486328
-0.575999975204467773 0.156000018119812012 2.30000019073486328
-0.569999992847442627 0.156000018119812012 2.30000019073486328
-0.522000014781951904 0.156000018119812012 2.30000019073486328
-0.498000025749206543 0.156000018119812012 2.30000019073486328
-0.473999977111816406 0.156000018119812012 2.30000019073486328
-0.444000005722045898 0.156000018119812012 2.30000019073486328
-0.419999957084655762 0.156000018119812012 2.30000019073486328
-0.396000027656555176 0.156000018119812012 2.30000019073486328
-0.546000003814697266 0.162000060081481934 2.30000019073486328
-1.11000001430511475 -0.917999982833862305 2.3059999942779541
0.0780000686645507812 -0.666000008583068848 2.3059999942779541
0.203999996185302734 -0.659999966621398926 2.3059999942779541
0.228000044822692871 -0.659999966621398926 2.3059999942779541
0.330000042915344238 -0.653999984264373779 2.3059999942779541
0.353999972343444824 -0.653999984264373779 2.3059999942779541
0.378000020980834961 -0.653999984264373779 2.3059999942779541
0.402000069618225098 -0.653999984264373779 2.3059999942779541
0.575999975204467773 -0.653999984264373779 2.3059999942779541
0.605999946594238281 -0.653999984264373779 2.3059999942779541
-1.09800004959106445 0.120000004768371582 2.3059999942779541
-0.61799997091293335 0.14999997615814209 2.3059999942779541
-0.587999999523162842 0.14999997615814209 2.3059999942779541
-0.515999972820281982 0.14999997615814209 2.3059999942779541
-0.498000025749206543 0.14999997615814209 2.3059999942779541
-0.473999977111816406 0.14999997615814209 2.3059999942779541
-0.444000005722045898 0.14999997615814209 2.3059999942779541
-1.07999992370605469 -0.930000007152557373 2.31200003623962402
0.425999999046325684 -0.653999984264373779 2.31200003623962402
0.630000114440917969 -0.653999984264373779 2.31200003623962402
-1.07400000095367432 0.120000004768371582 2.31200003623962402
-1.04999995231628418 0.120000004768371582 2.31200003623962402
-0.629999995231628418 0.14999997615814209 2.31200003623962402
-0.569999992847442627 0.14999997615814209 2.31200003623962402
-0.539999961853027344 0.14999997615814209 2.31200003623962402
-0.557999968528747559 0.18599998950958252 2.31200003623962402
0.455999970436096191 -0.653999984264373779 2.31799983978271484
-1.27799999713897705 0.108000040054321289 2.31799983978271484
-1.01999998092651367 0.120000004768371582 2.31799983978271484
-0.995999991893768311 0.120000004768371582 2.31799983978271484
0.00600004196166992188 -0.677999973297119141 2.32399988174438477
0.0299999713897705078 -0.677999973297119141 2.32399988174438477
0.0540000200271606445 -0.677999973297119141 2.32399988174438477
0.480000019073486328 -0.653999984264373779 2.32399988174438477
0.671999931335449219 -0.653999984264373779 2.32399988174438477
-0.972000002861022949 0.120000004768371582 2.32399988174438477
-1.07999992370605469 -0.93599998950958252 2.32999992370605469
-1.08599996566772461 -0.924000024795532227 2.32999992370605469
0.00600004196166992188 -0.677999973297119141 2.32999992370605469
0.0299999713897705078 -0.677999973297119141 2.32999992370605469
0.0540000200271606445 -0.677999973297119141 2.32999992370605469
0.120000004768371582 -0.677999973297119141 2.32999992370605469
0.126000046730041504 -0.677999973297119141 2.32999992370605469
0.011999964714050293 -0.671999990940093994 2.32999992370605469
0.0720000267028808594 -0.671999990940093994 2.32999992370605469
0.0780000686645507812 -0.671999990940093994 2.32999992370605469
0.144000053405761719 -0.671999990940093994 2.32999992370605469
0.167999982833862305 -0.671999990940093994 2.32999992370605469
0.180000066757202148 -0.671999990940093994 2.32999992370605469
0.203999996185302734 -0.671999990940093994 2.32999992370605469
0.228000044822692871 -0.671999990940093994 2.32999992370605469
0.264000058174133301 -0.666000008583068848 2.32999992370605469
0.276000022888183594 -0.666000008583068848 2.32999992370605469
0.30000007152557373 -0.666000008583068848 2.32999992370605469
0.330000042915344238 -0.666000008583068848 2.32999992370605469
0.384000062942504883 -0.666000008583068848 2.32999992370605469
0.558000087738037109 -0.666000008583068848 2.32999992370605469
0.414000034332275391 -0.659999966621398926 2.32999992370605469
0.425999999046325684 -0.659999966621398926 2.32999992370605469
0.468000054359436035 -0.653999984264373779 2.32999992370605469
0.480000019073486328 -0.653999984264373779 2.32999992370605469
0.605999946594238281 -0.653999984264373779 2.32999992370605469
0.516000032424926758 -0.648000001907348633 2.32999992370605469
0.528000116348266602 -0.648000001907348633 2.32999992370605469
-1.27799999713897705 0.101999998092651367 2.32999992370605469
-1.27199995517730713 0.101999998092651367 2.32999992370605469
-1.22399997711181641 0.101999998092651367 2.32999992370605469
-1.18799996376037598 0.101999998092651367 2.32999992370605469
-1.24800002574920654 0.108000040054321289 2.32999992370605469
-1.16999995708465576 0.108000040054321289 2.32999992370605469
-1.14600002765655518 0.108000040054321289 2.32999992370605469
-1.12199997901916504 0.108000040054321289 2.32999992370605469
-1.06799995899200439 0.108000040054321289 2.32999992370605469
-1.09800004959106445 0.11399996280670166 2.32999992370605469
-1.04999995231628418 0.11399996280670166 2.32999992370605469
-1.01999998092651367 0.11399996280670166 2.32999992370605469
-0.995999991893768311 0.11399996280670166 2.32999992370605469
-0.972000002861022949 0.120000004768371582 2.32999992370605469
-0.953999996185302734 0.126000046730041504 2.32999992370605469
-0.948000013828277588 0.126000046730041504 2.32999992370605469
-0.924000024795532227 0.126000046730041504 2.32999992370605469
-0.846000015735626221 0.126000046730041504 2.32999992370605469
-0.389999985694885254 0.126000046730041504 2.32999992370605469
-0.89999997615814209 0.131999969482421875 2.32999992370605469
-0.864000022411346436 0.131999969482421875 2.32999992370605469
-0.407999992370605469 0.131999969482421875 2.32999992370605469
-0.642000019550323486 0.138000011444091797 2.32999992370605469
-0.61799997091293335 0.138000011444091797 2.32999992370605469
-0.539999961853027344 0.138000011444091797 2.32999992370605469
-0.522000014781951904 0.138000011444091797 2.32999992370605469
-0.498000025749206543 0.138000011444091797 2.32999992370605469
-0.473999977111816406 0.138000011444091797 2.32999992370605469
-0.444000005722045898 0.138000011444091797 2.32999992370605469
-0.599999964237213135 0.144000053405761719 2.32999992370605469
-0.569999992847442627 0.144000053405761719 2.32999992370605469
0.156000018119812012 -0.677999973297119141 2.33599996566772461
0.180000066757202148 -0.677999973297119141 2.33599996566772461
0.210000038146972656 -0.677999973297119141 2.33599996566772461
0.108000040054321289 -0.671999990940093994 2.33599996566772461
0.353999972343444824 -0.666000008583068848 2.33599996566772461
0.75 -0.653999984264373779 2.33599996566772461
-0.948000013828277588 0.120000004768371582 2.33599996566772461
-0.839999973773956299 0.120000004768371582 2.33599996566772461
-0.629999995231628418 0.156000018119812012 2.33599996566772461
-1.28400003910064697 0.0959999561309814453 2.34200000762939453
-1.27199995517730713 0.0959999561309814453 2.34200000762939453
-1.24800002574920654 0.0959999561309814453 2.34200000762939453
-1.22399997711181641 0.0959999561309814453 2.34200000762939453
-1.1940000057220459 0.0959999561309814453 2.34200000762939453
-1.16999995708465576 0.0959999561309814453 2.34200000762939453
-0.924000024795532227 0.120000004768371582 2.34200000762939453
-1.07400000095367432 -0.93599998950958252 2.34800004959106445
0.228000044822692871 -0.677999973297119141 2.34800004959106445
0.575999975204467773 -0.666000008583068848 2.34800004959106445
-1.30200004577636719 0.0900000333786010742 2.34800004959106445
-1.14600002765655518 0.0959999561309814453 2.34800004959106445
-1.12199997901916504 0.0959999561309814453 2.34800004959106445
-1.06799995899200439 0.0959999561309814453 2.34800004959106445
-0.864000022411346436 0.120000004768371582 2.34800004959106445
-0.396000027656555176 0.120000004768371582 2.34800004959106445
-0.653999984264373779 0.126000046730041504 2.34800004959106445
-0.624000012874603271 0.156000018119812012 2.34800004959106445
-1.08599996566772461 -0.948000013828277588 2.35400009155273438
-1.07400000095367432 -0.941999971866607666 2.35400009155273438
-1.09200000762939453 -0.924000024795532227 2.35400009155273438
0.138000011444091797 -0.689999997615814209 2.35400009155273438
0.156000018119812012 -0.684000015258789062 2.35400009155273438
0.180000066757202148 -0.684000015258789062 2.35400009155273438
0.203999996185302734 -0.684000015258789062 2.35400009155273438
0.11399996280670166 -0.677999973297119141 2.35400009155273438
0.228000044822692871 -0.677999973297119141 2.35400009155273438
0.312000036239624023 -0.671999990940093994 2.35400009155273438
0.342000007629394531 -0.671999990940093994 2.35400009155273438
0.389999985694885254 -0.671999990940093994 2.35400009155273438
0.353999972343444824 -0.666000008583068848 2.35400009155273438
0.402000069618225098 -0.666000008583068848 2.35400009155273438
0.564000129699707031 -0.666000008583068848 2.35400009155273438
0.437999963760375977 -0.659999966621398926 2.35400009155273438
0.473999977111816406 -0.659999966621398926 2.35400009155273438
0.546000003814697266 -0.653999984264373779 2.35400009155273438
-0.684000015258789062 0.0720000267028808594 2.35400009155273438
-1.28999996185302734 0.0839999914169311523 2.35400009155273438
-1.27199995517730713 0.0839999914169311523 2.35400009155273438
-1.24800002574920654 0.0839999914169311523 2.35400009155273438
-1.22399997711181641 0.0839999914169311523 2.35400009155273438
-1.30200004577636719 0.0900000333786010742 2.35400009155273438
-1.1940000057220459 0.0900000333786010742 2.35400009155273438
-1.16999995708465576 0.0900000333786010742 2.35400009155273438
-1.14600002765655518 0.0959999561309814453 2.35400009155273438
-1.12199997901916504 0.0959999561309814453 2.35400009155273438
-1.09800004959106445 0.0959999561309814453 2.35400009155273438
-1.07400000095367432 0.0959999561309814453 2.35400009155273438
-1.11599993705749512 0.101999998092651367 2.35400009155273438
-1.09800004959106445 0.101999998092651367 2.35400009155273438
-1.0559999942779541 0.101999998092651367 2.35400009155273438
-1.04999995231628418 0.101999998092651367 2.35400009155273438
-1.01999998092651367 0.101999998092651367 2.35400009155273438
-0.995999991893768311 0.101999998092651367 2.35400009155273438
-0.839999973773956299 0.101999998092651367 2.35400009155273438
-0.972000002861022949 0.108000040054321289 2.35400009155273438
-0.948000013828277588 0.11399996280670166 2.35400009155273438
-0.851999998092651367 0.11399996280670166 2.35400009155273438
-0.924000024795532227 0.120000004768371582 2.35400009155273438
-0.89999997615814209 0.120000004768371582 2.35400009155273438
-0.653999984264373779 0.120000004768371582 2.35400009155273438
-0.473999977111816406 0.120000004768371582 2.35400009155273438
-0.414000034332275391 0.120000004768371582 2.35400009155273438
-0.396000027656555176 0.120000004768371582 2.35400009155273438
-0.930000007152557373 0.126000046730041504 2.35400009155273438
-0.917999982833862305 0.126000046730041504 2.35400009155273438
-0.89999997615814209 0.126000046730041504 2.35400009155273438
-0.642000019550323486 0.126000046730041504 2.35400009155273438
-0.624000012874603271 0.126000046730041504 2.35400009155273438
-0.599999964237213135 0.126000046730041504 2.35400009155273438
-0.551999986171722412 0.126000046730041504 2.35400009155273438
-0.546000003814697266 0.126000046730041504 2.35400009155273438
-0.522000014781951904 0.126000046730041504 2.35400009155273438
-0.491999983787536621 0.126000046730041504 2.35400009155273438
-0.473999977111816406 0.126000046730041504 2.35400009155273438
-0.444000005722045898 0.126000046730041504 2.35400009155273438
-0.419999957084655762 0.126000046730041504 2.35400009155273438
-0.635999977588653564 0.156000018119812012 2.35400009155273438
-1.07999992370605469 -0.953999996185302734 2.3600001335144043
-1.04999995231628418 0.0959999561309814453 2.3600001335144043
-1.01999998092651367 0.0959999561309814453 2.3600001335144043
-0.995999991893768311 0.0959999561309814453 2.3600001335144043
-0.642000019550323486 0.120000004768371582 2.3600001335144043
-0.624000012874603271 0.120000004768371582 2.3600001335144043
-0.546000003814697266 0.120000004768371582 2.3600001335144043
-0.498000025749206543 0.120000004768371582 2.3600001335144043
-0.444000005722045898 0.120000004768371582 2.3600001335144043
-0.653999984264373779 0.126000046730041504 2.3600001335144043
-0.599999964237213135 0.120000004768371582 2.36600017547607422
-0.569999992847442627 0.120000004768371582 2.36600017547607422
-0.522000014781951904 0.120000004768371582 2.36600017547607422
-0.396000027656555176 0.126000046730041504 2.36600017547607422
-0.56400001049041748 0.156000018119812012 2.36600017547607422
-1.07400000095367432 -0.959999978542327881 2.37199997901916504
-1.28400003910064697 0.0720000267028808594 2.37199997901916504
-1.27199995517730713 0.0720000267028808594 2.37199997901916504
-0.689999997615814209 0.0780000686645507812 2.37199997901916504
-0.972000002861022949 0.0959999561309814453 2.37199997901916504
-1.07400000095367432 -0.966000020503997803 2.37800002098083496
-1.09800004959106445 -0.941999971866607666 2.37800002098083496
0.156000018119812012 -0.797999978065490723 2.37800002098083496
0.180000066757202148 -0.797999978065490723 2.37800002098083496
0.203999996185302734 -0.791999995708465576 2.37800002098083496
0.14999997615814209 -0.78600001335144043 2.37800002098083496
0.162000060081481934 -0.773999989032745361 2.37800002098083496
0.180000066757202148 -0.773999989032745361 2.37800002098083496
0.222000002861022949 -0.773999989032745361 2.37800002098083496
0.144000053405761719 -0.702000021934509277 2.37800002098083496
0.156000018119812012 -0.702000021934509277 2.37800002098083496
0.131999969482421875 -0.695999979972839355 2.37800002098083496
0.167999982833862305 -0.695999979972839355 2.37800002098083496
0.180000066757202148 -0.695999979972839355 2.37800002098083496
0.203999996185302734 -0.695999979972839355 2.37800002098083496
0.389999985694885254 -0.671999990940093994 2.37800002098083496
0.420000076293945312 -0.671999990940093994 2.37800002098083496
0.425999999046325684 -0.671999990940093994 2.37800002098083496
-0.689999997615814209 0.0600000619888305664 2.37800002098083496
-1.30799996852874756 0.0720000267028808594 2.37800002098083496
-1.29600000381469727 0.0720000267028808594 2.37800002098083496
-1.27199995517730713 0.0720000267028808594 2.37800002098083496
-1.24800002574920654 0.0720000267028808594 2.37800002098083496
-1.31999993324279785 0.0780000686645507812 2.37800002098083496
-1.21200001239776611 0.0780000686645507812 2.37800002098083496
-1.1940000057220459 0.0780000686645507812 2.37800002098083496
-1.16999995708465576 0.0780000686645507812 2.37800002098083496
-1.14600002765655518 0.0780000686645507812 2.37800002098083496
-1.11599993705749512 0.0780000686645507812 2.37800002098083496
-0.689999997615814209 0.0780000686645507812 2.37800002098083496
-1.09200000762939453 0.0839999914169311523 2.37800002098083496
-1.07400000095367432 0.0839999914169311523 2.37800002098083496
-1.04999995231628418 0.0839999914169311523 2.37800002098083496
-1.01999998092651367 0.0900000333786010742 2.37800002098083496
-0.995999991893768311 0.0900000333786010742 2.37800002098083496
-0.972000002861022949 0.0959999561309814453 2.37800002098083496
-0.966000020503997803 0.101999998092651367 2.37800002098083496
-0.948000013828277588 0.101999998092651367 2.37800002098083496
-0.924000024795532227 0.101999998092651367 2.37800002098083496
-0.893999993801116943 0.101999998092651367 2.37800002098083496
-0.864000022411346436 0.101999998092651367 2.37800002098083496
-0.653999984264373779 0.108000040054321289 2.37800002098083496
-0.648000001907348633 0.108000040054321289 2.37800002098083496
-0.624000012874603271 0.108000040054321289 2.37800002098083496
-0.593999981880187988 0.108000040054321289 2.37800002098083496
-0.557999968528747559 0.108000040054321289 2.37800002098083496
-0.546000003814697266 0.108000040054321289 2.37800002098083496
-0.509999990463256836 0.108000040054321289 2.37800002098083496
-0.498000025749206543 0.108000040054321289 2.37800002098083496
-0.473999977111816406 0.108000040054321289 2.37800002098083496
-0.444000005722045898 0.108000040054321289 2.37800002098083496
-0.419999957084655762 0.108000040054321289 2.37800002098083496
-0.653999984264373779 0.131999969482421875 2.37800002098083496
-0.648000001907348633 0.138000011444091797 2.37800002098083496
-1.08599996566772461 -0.966000020503997803 2.38400006294250488
-1.07400000095367432 -0.948000013828277588 2.38400006294250488
0.156000018119812012 -0.804000020027160645 2.38400006294250488
0.180000066757202148 -0.804000020027160645 2.38400006294250488
0.228000044822692871 -0.791999995708465576 2.38400006294250488
0.14999997615814209 -0.773999989032745361 2.38400006294250488
0.228000044822692871 -0.773999989032745361 2.38400006294250488
0.180000066757202148 -0.702000021934509277 2.38400006294250488
0.360000014305114746 -0.677999973297119141 2.38400006294250488
-1.22399997711181641 0.0720000267028808594 2.38400006294250488
-1.1940000057220459 0.0720000267028808594 2.38400006294250488
-1.16999995708465576 0.0720000267028808594 2.38400006294250488
-0.857999980449676514 0.0959999561309814453 2.38400006294250488
-0.401999950408935547 0.0959999561309814453 2.38400006294250488
-0.582000017166137695 0.144000053405761719 2.38400006294250488
0.203999996185302734 -0.804000020027160645 2.3899998664855957
0.228000044822692871 -0.804000020027160645 2.3899998664855957
0.251999974250793457 -0.779999971389770508 2.3899998664855957
0.251999974250793457 -0.773999989032745361 2.3899998664855957
0.156000018119812012 -0.75 2.3899998664855957
0.180000066757202148 -0.75 2.3899998664855957
0.203999996185302734 -0.702000021934509277 2.3899998664855957
0.378000020980834961 -0.677999973297119141 2.3899998664855957
-1.32599997520446777 0.0659999847412109375 2.3899998664855957
-1.11000001430511475 0.0720000267028808594 2.3899998664855957
-0.948000013828277588 0.0959999561309814453 2.3899998664855957
-0.912000000476837158 0.0959999561309814453 2.3899998664855957
-0.89999997615814209 0.0959999561309814453 2.3899998664855957
-0.467999935150146484 0.0959999561309814453 2.3899998664855957
-0.396000027656555176 0.0959999561309814453 2.3899998664855957
0.14999997615814209 -0.75 2.39599990844726562
0.203999996185302734 -0.75 2.39599990844726562
0.246000051498413086 -0.75 2.39599990844726562
0.251999974250793457 -0.75 2.39599990844726562
0.45000004768371582 -0.671999990940093994 2.39599990844726562
-1.14600002765655518 0.0720000267028808594 2.39599990844726562
-1.09800004959106445 0.0720000267028808594 2.39599990844726562
-1.07400000095367432 0.0720000267028808594 2.39599990844726562
-1.04999995231628418 0.0720000267028808594 2.39599990844726562
-0.56400001049041748 0.0959999561309814453 2.39599990844726562
-0.485999941825866699 0.0959999561309814453 2.39599990844726562
-0.444000005722045898 0.0959999561309814453 2.39599990844726562
-1.09800004959106445 -0.977999985218048096 2.40199995040893555
-1.09800004959106445 -0.972000002861022949 2.40199995040893555
-1.07400000095367432 -0.966000020503997803 2.40199995040893555
0.14999997615814209 -0.810000002384185791 2.40199995040893555
0.156000018119812012 -0.810000002384185791 2.40199995040893555
0.180000066757202148 -0.810000002384185791 2.40199995040893555
0.203999996185302734 -0.810000002384185791 2.40199995040893555
0.276000022888183594 -0.804000020027160645 2.40199995040893555
0.30000007152557373 -0.804000020027160645 2.40199995040893555
0.144000053405761719 -0.797999978065490723 2.40199995040893555
0.156000018119812012 -0.797999978065490723 2.40199995040893555
0.203999996185302734 -0.797999978065490723 2.40199995040893555
0.282000064849853516 -0.797999978065490723 2.40199995040893555
0.30000007152557373 -0.797999978065490723 2.40199995040893555
0.251999974250793457 -0.791999995708465576 2.40199995040893555
0.180000066757202148 -0.78600001335144043 2.40199995040893555
0.144000053405761719 -0.773999989032745361 2.40199995040893555
0.156000018119812012 -0.773999989032745361 2.40199995040893555
0.180000066757202148 -0.773999989032745361 2.40199995040893555
0.246000051498413086 -0.773999989032745361 2.40199995040893555
0.251999974250793457 -0.773999989032745361 2.40199995040893555
0.276000022888183594 -0.773999989032745361 2.40199995040893555
0.203999996185302734 -0.761999964714050293 2.40199995040893555
0.144000053405761719 -0.75 2.40199995040893555
0.156000018119812012 -0.75 2.40199995040893555
0.180000066757202148 -0.75 2.40199995040893555
0.203999996185302734 -0.75 2.40199995040893555
0.228000044822692871 -0.75 2.40199995040893555
0.251999974250793457 -0.75 2.40199995040893555
0.138000011444091797 -0.719999969005584717 2.40199995040893555
0.156000018119812012 -0.719999969005584717 2.40199995040893555
0.18599998950958252 -0.708000004291534424 2.40199995040893555
0.203999996185302734 -0.708000004291534424 2.40199995040893555
0.432000041007995605 -0.677999973297119141 2.40199995040893555
-1.3320000171661377 0.0540000200271606445 2.40199995040893555
-1.31999993324279785 0.0600000619888305664 2.40199995040893555
-1.29600000381469727 0.0600000619888305664 2.40199995040893555
-1.27199995517730713 0.0600000619888305664 2.40199995040893555
-1.24800002574920654 0.0600000619888305664 2.40199995040893555
-1.22399997711181641 0.0600000619888305664 2.40199995040893555
-1.1940000057220459 0.0659999847412109375 2.40199995040893555
-1.16999995708465576 0.0659999847412109375 2.40199995040893555
-1.14600002765655518 0.0659999847412109375 2.40199995040893555
-1.12199997901916504 0.0659999847412109375 2.40199995040893555
-1.09800004959106445 0.0659999847412109375 2.40199995040893555
-1.07400000095367432 0.0720000267028808594 2.40199995040893555
-1.04999995231628418 0.0720000267028808594 2.40199995040893555
-1.01999998092651367 0.0720000267028808594 2.40199995040893555
-1.07400000095367432 0.0780000686645507812 2.40199995040893555
-1.04999995231628418 0.0780000686645507812 2.40199995040893555
-1.01999998092651367 0.0780000686645507812 2.40199995040893555
-0.995999991893768311 0.0780000686645507812 2.40199995040893555
-0.972000002861022949 0.0839999914169311523 2.40199995040893555
-0.941999971866607666 0.0900000333786010742 2.40199995040893555
-0.870000004768371582 0.0900000333786010742 2.40199995040893555
-0.689999997615814209 0.0900000333786010742 2.40199995040893555
-0.924000024795532227 0.0959999561309814453 2.40199995040893555
-0.89999997615814209 0.0959999561309814453 2.40199995040893555
-0.666000008583068848 0.0959999561309814453 2.40199995040893555
-0.575999975204467773 0.0959999561309814453 2.40199995040893555
-0.569999992847442627 0.0959999561309814453 2.40199995040893555
-0.546000003814697266 0.0959999561309814453 2.40199995040893555
-0.509999990463256836 0.0959999561309814453 2.40199995040893555
-0.498000025749206543 0.0959999561309814453 2.40199995040893555
-0.473999977111816406 0.0959999561309814453 2.40199995040893555
-0.444000005722045898 0.0959999561309814453 2.40199995040893555
-0.419999957084655762 0.0959999561309814453 2.40199995040893555
-0.671999990940093994 0.101999998092651367 2.40199995040893555
-0.642000019550323486 0.101999998092651367 2.40199995040893555
-0.624000012874603271 0.101999998092651367 2.40199995040893555
-0.599999964237213135 0.101999998092651367 2.40199995040893555
-0.593999981880187988 0.138000011444091797 2.40199995040893555
0.264000058174133301 -0.804000020027160645 2.40799999237060547
0.30000007152557373 -0.773999989032745361 2.40799999237060547
0.276000022888183594 -0.75 2.40799999237060547
0.30000007152557373 -0.75 2.40799999237060547
0.222000002861022949 -0.695999979972839355 2.40799999237060547
0.384000062942504883 -0.684000015258789062 2.40799999237060547
0.45000004768371582 -0.677999973297119141 2.40799999237060547
-0.648000001907348633 0.0959999561309814453 2.40799999237060547
-0.61799997091293335 0.0959999561309814453 2.40799999237060547
-0.677999973297119141 0.101999998092651367 2.40799999237060547
-1.07400000095367432 -0.977999985218048096 2.41400003433227539
0.228000044822692871 -0.810000002384185791 2.41400003433227539
0.330000042915344238 -0.810000002384185791 2.41400003433227539
0.330000042915344238 -0.797999978065490723 2.41400003433227539
-1.33800005912780762 0.0479999780654907227 2.41400003433227539
-1.31999993324279785 0.0479999780654907227 2.41400003433227539
-1.29600000381469727 0.0479999780654907227 2.41400003433227539
-1.27199995517730713 0.0479999780654907227 2.41400003433227539
-0.995999991893768311 0.0720000267028808594 2.41400003433227539
-1.10399997234344482 -0.990000009536743164 2.42000007629394531
0.353999972343444824 -0.815999984741210938 2.42000007629394531
0.353999972343444824 -0.797999978065490723 2.42000007629394531
0.330000042915344238 -0.773999989032745361 2.42000007629394531
0.330000042915344238 -0.75 2.42000007629394531
0.378000020980834961 -0.75 2.42000007629394531
0.420000076293945312 -0.684000015258789062 2.42000007629394531
0.480000019073486328 -0.677999973297119141 2.42000007629394531
0.516000032424926758 -0.677999973297119141 2.42000007629394531
-1.24800002574920654 0.0479999780654907227 2.42000007629394531
-1.22399997711181641 0.0479999780654907227 2.42000007629394531
-0.972000002861022949 0.0720000267028808594 2.42000007629394531
-1.10399997234344482 -0.995999991893768311 2.42600011825561523
-1.08599996566772461 -0.990000009536743164 2.42600011825561523
-1.07400000095367432 -0.990000009536743164 2.42600011825561523
-1.06799995899200439 -0.972000002861022949 2.42600011825561523
-1.08599996566772461 -0.966000020503997803 2.42600011825561523
0.156000018119812012 -0.821999967098236084 2.42600011825561523
0.180000066757202148 -0.821999967098236084 2.42600011825561523
0.203999996185302734 -0.821999967098236084 2.42600011825561523
0.287999987602233887 -0.821999967098236084 2.42600011825561523
0.144000053405761719 -0.815999984741210938 2.42600011825561523
0.228000044822692871 -0.815999984741210938 2.42600011825561523
0.251999974250793457 -0.815999984741210938 2.42600011825561523
0.30000007152557373 -0.815999984741210938 2.42600011825561523
0.330000042915344238 -0.815999984741210938 2.42600011825561523
0.353999972343444824 -0.815999984741210938 2.42600011825561523
0.138000011444091797 -0.797999978065490723 2.42600011825561523
0.203999996185302734 -0.797999978065490723 2.42600011825561523
0.269999980926513672 -0.797999978065490723 2.42600011825561523
0.276000022888183594 -0.797999978065490723 2.42600011825561523
0.335999965667724609 -0.797999978065490723 2.42600011825561523
