ply
format ascii 1.0
element vertex 774
property float x
property float y
property float z
end_header
-1.35000002384185791 -0.0839999914169311523 1.53200006484985352
-1.31400001049041748 -0.0720000267028808594 1.53200006484985352
-1.40999996662139893 0.264000058174133301 1.53200006484985352
-1.3739999532699585 0.396000027656555176 1.53200006484985352
-0.89999997615814209 0.473999977111816406 1.53200006484985352
-1.22399997711181641 0.48600006103515625 1.53200006484985352
-0.953999996185302734 0.558000087738037109 1.53200006484985352
-1.24800002574920654 -0.498000025749206543 1.53799998760223389
-1.30799996852874756 -0.197999954223632812 1.53799998760223389
-1.29600000381469727 -0.174000024795532227 1.53799998760223389
-1.30200004577636719 -0.167999982833862305 1.53799998760223389
-1.3320000171661377 0.0600000619888305664 1.53799998760223389
-1.31400001049041748 0.0959999561309814453 1.53799998760223389
-1.31999993324279785 0.101999998092651367 1.53799998760223389
-1.37999999523162842 0.131999969482421875 1.53799998760223389
-1.3619999885559082 0.473999977111816406 1.53799998760223389
-0.89999997615814209 0.503999948501586914 1.53799998760223389
-1.09800004959106445 0.671999931335449219 1.53799998760223389
-1.10399997234344482 0.677999973297119141 1.53799998760223389
-1.09800004959106445 0.684000015258789062 1.53799998760223389
-1.24800002574920654 -0.533999979496002197 1.54400002956390381
-1.24800002574920654 -0.522000014781951904 1.54400002956390381
-1.28400003910064697 -0.269999980926513672 1.54400002956390381
-1.29600000381469727 -0.179999947547912598 1.54400002956390381
-1.29600000381469727 -0.11399996280670166 1.54400002956390381
-1.29600000381469727 -0.0779999494552612305 1.54400002956390381
-1.36800003051757812 0.246000051498413086 1.54400002956390381
-1.30200004577636719 -0.378000020980834961 1.54999995231628418
-1.27199995517730713 -0.203999996185302734 1.54999995231628418
-1.27199995517730713 -0.197999954223632812 1.54999995231628418
-1.29600000381469727 -0.0659999847412109375 1.54999995231628418
-1.35000002384185791 0.0600000619888305664 1.54999995231628418
-1.45200002193450928 0.258000016212463379 1.54999995231628418
-1.42799997329711914 0.258000016212463379 1.54999995231628418
-1.24800002574920654 -0.539999961853027344 1.5559999942779541
-1.25399994850158691 -0.533999979496002197 1.5559999942779541
-1.27799999713897705 -0.522000014781951904 1.5559999942779541
-1.24800002574920654 -0.522000014781951904 1.5559999942779541
-1.25399994850158691 -0.515999972820281982 1.5559999942779541
-1.25999999046325684 -0.498000025749206543 1.5559999942779541
-1.26600003242492676 -0.473999977111816406 1.5559999942779541
-1.27799999713897705 -0.467999935150146484 1.5559999942779541
-1.25999999046325684 -0.444000005722045898 1.5559999942779541
-1.29600000381469727 -0.425999999046325684 1.5559999942779541
-1.28999996185302734 -0.419999957084655762 1.5559999942779541
-1.28400003910064697 -0.396000027656555176 1.5559999942779541
-1.27199995517730713 -0.396000027656555176 1.5559999942779541
-1.29600000381469727 -0.371999979019165039 1.5559999942779541
-1.28400003910064697 -0.348000049591064453 1.5559999942779541
-1.30200004577636719 -0.324000000953674316 1.5559999942779541
-1.29600000381469727 -0.324000000953674316 1.5559999942779541
-1.30799996852874756 -0.29999995231628418 1.5559999942779541
-1.29600000381469727 -0.29999995231628418 1.5559999942779541
-1.28999996185302734 -0.269999980926513672 1.5559999942779541
-1.29600000381469727 -0.245999932289123535 1.5559999942779541
-1.30200004577636719 -0.240000009536743164 1.5559999942779541
-1.30200004577636719 -0.222000002861022949 1.5559999942779541
-1.29600000381469727 -0.203999996185302734 1.5559999942779541
-1.31400001049041748 -0.197999954223632812 1.5559999942779541
-1.28999996185302734 -0.197999954223632812 1.5559999942779541
-1.29600000381469727 -0.174000024795532227 1.5559999942779541
-1.30799996852874756 -0.156000018119812012 1.5559999942779541
-1.30799996852874756 -0.14999997615814209 1.5559999942779541
-1.28999996185302734 -0.14999997615814209 1.5559999942779541
-1.30799996852874756 -0.0900000333786010742 1.5559999942779541
-1.30799996852874756 -0.0720000267028808594 1.5559999942779541
-1.33800005912780762 0.0780000686645507812 1.5559999942779541
-1.31400001049041748 0.0959999561309814453 1.5559999942779541
-1.31999993324279785 0.101999998092651367 1.5559999942779541
-1.3320000171661377 0.108000040054321289 1.5559999942779541
-1.3320000171661377 0.126000046730041504 1.5559999942779541
-1.33800005912780762 0.156000018119812012 1.5559999942779541
-1.44599997997283936 0.222000002861022949 1.5559999942779541
-1.44000005722045898 0.228000044822692871 1.5559999942779541
-1.3739999532699585 0.246000051498413086 1.5559999942779541
-1.47000002861022949 0.251999974250793457 1.5559999942779541
-1.42799997329711914 0.251999974250793457 1.5559999942779541
-1.42200005054473877 0.251999974250793457 1.5559999942779541
-1.36800003051757812 0.251999974250793457 1.5559999942779541
-1.34399998188018799 0.251999974250793457 1.5559999942779541
-1.39800000190734863 0.258000016212463379 1.5559999942779541
-1.35000002384185791 0.276000022888183594 1.5559999942779541
-1.34399998188018799 0.276000022888183594 1.5559999942779541
-1.36800003051757812 0.30000007152557373 1.5559999942779541
-1.39199995994567871 0.330000042915344238 1.5559999942779541
-1.3619999885559082 0.330000042915344238 1.5559999942779541
-1.3739999532699585 0.353999972343444824 1.5559999942779541
-1.3619999885559082 0.378000020980834961 1.5559999942779541
-1.36800003051757812 0.402000069618225098 1.5559999942779541
-1.37999999523162842 0.420000076293945312 1.5559999942779541
-1.38600003719329834 0.425999999046325684 1.5559999942779541
-1.37999999523162842 0.45000004768371582 1.5559999942779541
-1.3739999532699585 0.45000004768371582 1.5559999942779541
-1.27199995517730713 0.45000004768371582 1.5559999942779541
-1.30799996852874756 0.455999970436096191 1.5559999942779541
-1.29600000381469727 0.455999970436096191 1.5559999942779541
-1.24199998378753662 0.455999970436096191 1.5559999942779541
-1.21200001239776611 0.455999970436096191 1.5559999942779541
-1.18799996376037598 0.455999970436096191 1.5559999942779541
-1.16999995708465576 0.455999970436096191 1.5559999942779541
-0.948000013828277588 0.455999970436096191 1.5559999942779541
-1.14600002765655518 0.462000012397766113 1.5559999942779541
-1.12199997901916504 0.462000012397766113 1.5559999942779541
-1.09800004959106445 0.462000012397766113 1.5559999942779541
-1.07400000095367432 0.462000012397766113 1.5559999942779541
-1.04999995231628418 0.462000012397766113 1.5559999942779541
-1.01999998092651367 0.462000012397766113 1.5559999942779541
-0.995999991893768311 0.462000012397766113 1.5559999942779541
-0.972000002861022949 0.462000012397766113 1.5559999942779541
-0.924000024795532227 0.462000012397766113 1.5559999942779541
-1.3320000171661377 0.468000054359436035 1.5559999942779541
-0.89999997615814209 0.468000054359436035 1.5559999942779541
-0.893999993801116943 0.480000019073486328 1.5559999942779541
-0.89999997615814209 0.503999948501586914 1.5559999942779541
-0.89999997615814209 0.528000116348266602 1.5559999942779541
-0.917999982833862305 0.539999961853027344 1.5559999942779541
-0.93599998950958252 0.546000003814697266 1.5559999942779541
-1.10399997234344482 0.671999931335449219 1.5559999942779541
-1.11000001430511475 0.677999973297119141 1.5559999942779541
-1.04400002956390381 0.732000112533569336 1.5559999942779541
-1.24800002574920654 -0.437999963760375977 1.56200003623962402
-1.30200004577636719 -0.371999979019165039 1.56200003623962402
-1.27199995517730713 -0.342000007629394531 1.56200003623962402
-1.30799996852874756 -0.330000042915344238 1.56200003623962402
-1.27799999713897705 -0.0479999780654907227 1.56200003623962402
-1.31400001049041748 -0.0299999713897705078 1.56200003623962402
-1.31999993324279785 0.126000046730041504 1.56200003623962402
-1.45200002193450928 0.228000044822692871 1.56200003623962402
-1.47599995136260986 0.246000051498413086 1.56200003623962402
-1.3739999532699585 0.432000041007995605 1.56200003623962402
-1.3739999532699585 0.480000019073486328 1.56200003623962402
-1.07400000095367432 0.648000001907348633 1.56200003623962402
-1.09800004959106445 0.666000127792358398 1.56200003623962402
-1.09800004959106445 0.677999973297119141 1.56200003623962402
-1.24800002574920654 -0.498000025749206543 1.56799995899200439
-1.24800002574920654 -0.455999970436096191 1.56799995899200439
-1.26600003242492676 -0.360000014305114746 1.56799995899200439
-1.27199995517730713 -0.324000000953674316 1.56799995899200439
-1.26600003242492676 -0.251999974250793457 1.56799995899200439
-1.32599997520446777 -0.192000031471252441 1.56799995899200439
-1.31400001049041748 -0.108000040054321289 1.56799995899200439
-1.28999996185302734 -0.0540000200271606445 1.56799995899200439
-1.31999993324279785 0.156000018119812012 1.56799995899200439
-1.3320000171661377 0.228000044822692871 1.56799995899200439
-1.39199995994567871 0.246000051498413086 1.56799995899200439
-1.12800002098083496 0.690000057220458984 1.56799995899200439
-0.972000002861022949 0.743999958038330078 1.56799995899200439
-0.983999967575073242 0.75 1.56799995899200439
-0.972000002861022949 0.75 1.56799995899200439
-1.25399994850158691 -0.419999957084655762 1.57400000095367432
-1.24800002574920654 -0.419999957084655762 1.57400000095367432
-1.24800002574920654 -0.365999937057495117 1.57400000095367432
-1.32599997520446777 -0.305999994277954102 1.57400000095367432
-1.27199995517730713 -0.29999995231628418 1.57400000095367432
-1.42200005054473877 0.233999967575073242 1.57400000095367432
-1.27199995517730713 0.444000005722045898 1.57400000095367432
-1.09200000762939453 0.726000070571899414 1.57400000095367432
-1.0559999942779541 0.737999916076660156 1.57400000095367432
-1.01399993896484375 0.737999916076660156 1.57400000095367432
-0.995999991893768311 0.743999958038330078 1.57400000095367432
-1.00199997425079346 0.756000041961669922 1.57400000095367432
-1.25999999046325684 -0.539999961853027344 1.58000004291534424
-1.23600006103515625 -0.533999979496002197 1.58000004291534424
-1.24800002574920654 -0.522000014781951904 1.58000004291534424
-1.24800002574920654 -0.498000025749206543 1.58000004291534424
-1.25399994850158691 -0.491999983787536621 1.58000004291534424
-1.25999999046325684 -0.473999977111816406 1.58000004291534424
-1.24800002574920654 -0.455999970436096191 1.58000004291534424
-1.25399994850158691 -0.444000005722045898 1.58000004291534424
-1.24800002574920654 -0.444000005722045898 1.58000004291534424
-1.27799999713897705 -0.401999950408935547 1.58000004291534424
-1.27199995517730713 -0.401999950408935547 1.58000004291534424
-1.27199995517730713 -0.396000027656555176 1.58000004291534424
-1.27799999713897705 -0.389999985694885254 1.58000004291534424
-1.30200004577636719 -0.378000020980834961 1.58000004291534424
-1.28400003910064697 -0.371999979019165039 1.58000004291534424
-1.27199995517730713 -0.371999979019165039 1.58000004291534424
-1.25999999046325684 -0.348000049591064453 1.58000004291534424
-1.27799999713897705 -0.335999965667724609 1.58000004291534424
-1.27799999713897705 -0.324000000953674316 1.58000004291534424
-1.26600003242492676 -0.324000000953674316 1.58000004291534424
-1.28999996185302734 -0.29999995231628418 1.58000004291534424
-1.27199995517730713 -0.29999995231628418 1.58000004291534424
-1.27799999713897705 -0.269999980926513672 1.58000004291534424
-1.27199995517730713 -0.269999980926513672 1.58000004291534424
-1.28999996185302734 -0.18599998950958252 1.58000004291534424
-1.29600000381469727 -0.174000024795532227 1.58000004291534424
-1.31400001049041748 -0.167999982833862305 1.58000004291534424
-1.28999996185302734 -0.14999997615814209 1.58000004291534424
-1.31400001049041748 -0.11399996280670166 1.58000004291534424
-1.30799996852874756 -0.0959999561309814453 1.58000004291534424
-1.30799996852874756 -0.0720000267028808594 1.58000004291534424
-1.28999996185302734 -0.0599999427795410156 1.58000004291534424
-1.30799996852874756 -0.0419999361038208008 1.58000004291534424
-1.30200004577636719 0.00600004196166992188 1.58000004291534424
-1.34399998188018799 0.0780000686645507812 1.58000004291534424
-1.31999993324279785 0.0839999914169311523 1.58000004291534424
-1.33800005912780762 0.108000040054321289 1.58000004291534424
-1.31999993324279785 0.108000040054321289 1.58000004291534424
-1.32599997520446777 0.126000046730041504 1.58000004291534424
-1.31999993324279785 0.126000046730041504 1.58000004291534424
-1.3320000171661377 0.156000018119812012 1.58000004291534424
-1.44000005722045898 0.233999967575073242 1.58000004291534424
-1.35000002384185791 0.233999967575073242 1.58000004291534424
-1.34399998188018799 0.233999967575073242 1.58000004291534424
-1.37999999523162842 0.240000009536743164 1.58000004291534424
-1.40999996662139893 0.246000051498413086 1.58000004291534424
-1.42200005054473877 0.251999974250793457 1.58000004291534424
-1.39800000190734863 0.251999974250793457 1.58000004291534424
-1.34399998188018799 0.251999974250793457 1.58000004291534424
-1.35000002384185791 0.269999980926513672 1.58000004291534424
-1.35000002384185791 0.276000022888183594 1.58000004291534424
-1.34399998188018799 0.276000022888183594 1.58000004291534424
-1.35000002384185791 0.30000007152557373 1.58000004291534424
-1.35599994659423828 0.330000042915344238 1.58000004291534424
-1.35599994659423828 0.353999972343444824 1.58000004291534424
-1.3619999885559082 0.378000020980834961 1.58000004291534424
-1.3619999885559082 0.402000069618225098 1.58000004291534424
-1.36800003051757812 0.425999999046325684 1.58000004291534424
-1.27799999713897705 0.444000005722045898 1.58000004291534424
-1.36800003051757812 0.45000004768371582 1.58000004291534424
-1.29600000381469727 0.45000004768371582 1.58000004291534424
-1.27199995517730713 0.45000004768371582 1.58000004291534424
-1.24800002574920654 0.45000004768371582 1.58000004291534424
-1.22399997711181641 0.45000004768371582 1.58000004291534424
-1.1940000057220459 0.45000004768371582 1.58000004291534424
-1.16999995708465576 0.45000004768371582 1.58000004291534424
-1.14600002765655518 0.45000004768371582 1.58000004291534424
-1.11000001430511475 0.45000004768371582 1.58000004291534424
-0.983999967575073242 0.45000004768371582 1.58000004291534424
-0.972000002861022949 0.45000004768371582 1.58000004291534424
-0.941999971866607666 0.45000004768371582 1.58000004291534424
-1.31400001049041748 0.455999970436096191 1.58000004291534424
-1.09800004959106445 0.455999970436096191 1.58000004291534424
-1.07400000095367432 0.455999970436096191 1.58000004291534424
-1.04999995231628418 0.455999970436096191 1.58000004291534424
-1.01999998092651367 0.455999970436096191 1.58000004291534424
-0.924000024795532227 0.455999970436096191 1.58000004291534424
-0.89999997615814209 0.455999970436096191 1.58000004291534424
-1.34399998188018799 0.462000012397766113 1.58000004291534424
-1.36800003051757812 0.480000019073486328 1.58000004291534424
-0.881999969482421875 0.480000019073486328 1.58000004291534424
-0.893999993801116943 0.503999948501586914 1.58000004291534424
-0.906000018119812012 0.528000116348266602 1.58000004291534424
-0.89999997615814209 0.528000116348266602 1.58000004291534424
-1.07999992370605469 0.660000085830688477 1.58000004291534424
-1.11000001430511475 0.671999931335449219 1.58000004291534424
-1.09200000762939453 0.677999973297119141 1.58000004291534424
-1.10399997234344482 0.684000015258789062 1.58000004291534424
-1.04400002956390381 0.732000112533569336 1.58000004291534424
-1.01999998092651367 0.732000112533569336 1.58000004291534424
-1.06200003623962402 0.737999916076660156 1.58000004291534424
-0.995999991893768311 0.737999916076660156 1.58000004291534424
-0.972000002861022949 0.737999916076660156 1.58000004291534424
-0.948000013828277588 0.743999958038330078 1.58000004291534424
-1.03799998760223389 0.75 1.58000004291534424
-1.00800001621246338 0.75 1.58000004291534424
-0.972000002861022949 0.75 1.58000004291534424
-0.948000013828277588 0.75 1.58000004291534424
-0.995999991893768311 0.756000041961669922 1.58000004291534424
-1.24800002574920654 -0.365999937057495117 1.58599996566772461
-1.30200004577636719 -0.179999947547912598 1.58599996566772461
-1.32599997520446777 -0.0900000333786010742 1.58599996566772461
-1.42799997329711914 0.251999974250793457 1.58599996566772461
-1.21200001239776611 0.444000005722045898 1.58599996566772461
-1.1940000057220459 0.444000005722045898 1.58599996566772461
-1.16999995708465576 0.444000005722045898 1.58599996566772461
-1.37999999523162842 0.480000019073486328 1.58599996566772461
-1.09800004959106445 0.726000070571899414 1.58599996566772461
-1.22399997711181641 -0.485999941825866699 1.59200000762939453
-1.24800002574920654 -0.419999957084655762 1.59200000762939453
-1.30200004577636719 -0.305999994277954102 1.59200000762939453
-1.28400003910064697 -0.0779999494552612305 1.59200000762939453
-1.31400001049041748 -0.0180000066757202148 1.59200000762939453
-1.32599997520446777 0.0720000267028808594 1.59200000762939453
-1.31999993324279785 0.0720000267028808594 1.59200000762939453
-1.45200002193450928 0.228000044822692871 1.59200000762939453
-1.34399998188018799 0.30000007152557373 1.59200000762939453
-1.26600003242492676 0.444000005722045898 1.59200000762939453
-1.12199997901916504 0.444000005722045898 1.59200000762939453
-0.953999996185302734 0.444000005722045898 1.59200000762939453
-1.07400000095367432 0.654000043869018555 1.59200000762939453
-1.12800002098083496 0.696000099182128906 1.59200000762939453
-1.12800002098083496 0.701999902725219727 1.59200000762939453
-1.12199997901916504 0.701999902725219727 1.59200000762939453
-1.11000001430511475 0.726000070571899414 1.59200000762939453
-1.25399994850158691 -0.522000014781951904 1.59800004959106445
-1.27199995517730713 -0.0779999494552612305 1.59800004959106445
-1.30799996852874756 0.0360000133514404297 1.59800004959106445
-1.34399998188018799 0.330000042915344238 1.59800004959106445
-1.24800002574920654 0.444000005722045898 1.59800004959106445
-1.14600002765655518 0.444000005722045898 1.59800004959106445
-1.03200006484985352 0.444000005722045898 1.59800004959106445
-0.941999971866607666 0.444000005722045898 1.59800004959106445
-0.870000004768371582 0.455999970436096191 1.59800004959106445
-0.870000004768371582 0.480000019073486328 1.59800004959106445
-1.04999995231628418 0.720000028610229492 1.59800004959106445
-1.12800002098083496 0.726000070571899414 1.59800004959106445
-1.02600002288818359 0.779999971389770508 1.59800004959106445
-1.24199998378753662 -0.522000014781951904 1.60399997234344482
-1.24800002574920654 -0.498000025749206543 1.60399997234344482
-1.24199998378753662 -0.473999977111816406 1.60399997234344482
-1.25999999046325684 -0.455999970436096191 1.60399997234344482
-1.24800002574920654 -0.419999957084655762 1.60399997234344482
-1.25999999046325684 -0.414000034332275391 1.60399997234344482
-1.27799999713897705 -0.396000027656555176 1.60399997234344482
-1.27199995517730713 -0.396000027656555176 1.60399997234344482
-1.25399994850158691 -0.371999979019165039 1.60399997234344482
-1.24800002574920654 -0.371999979019165039 1.60399997234344482
-1.27199995517730713 -0.348000049591064453 1.60399997234344482
-1.26600003242492676 -0.324000000953674316 1.60399997234344482
-1.27199995517730713 -0.29999995231628418 1.60399997234344482
-1.27799999713897705 -0.281999945640563965 1.60399997234344482
-1.27199995517730713 -0.269999980926513672 1.60399997234344482
-1.28999996185302734 -0.192000031471252441 1.60399997234344482
-1.29600000381469727 -0.174000024795532227 1.60399997234344482
-1.30200004577636719 -0.167999982833862305 1.60399997234344482
-1.26600003242492676 -0.143999934196472168 1.60399997234344482
-1.28999996185302734 -0.0839999914169311523 1.60399997234344482
-1.27199995517730713 -0.0779999494552612305 1.60399997234344482
-1.28400003910064697 -0.0720000267028808594 1.60399997234344482
-1.30200004577636719 -0.0599999427795410156 1.60399997234344482
-1.30799996852874756 -0.0299999713897705078 1.60399997234344482
-1.31400001049041748 -0.0239999294281005859 1.60399997234344482
-1.31999993324279785 0 1.60399997234344482
-1.3320000171661377 0.0180000066757202148 1.60399997234344482
-1.31400001049041748 0.0299999713897705078 1.60399997234344482
-1.31400001049041748 0.0720000267028808594 1.60399997234344482
-1.32599997520446777 0.0780000686645507812 1.60399997234344482
-1.31999993324279785 0.0780000686645507812 1.60399997234344482
-1.31999993324279785 0.101999998092651367 1.60399997234344482
-1.31999993324279785 0.126000046730041504 1.60399997234344482
-1.44000005722045898 0.233999967575073242 1.60399997234344482
-1.37999999523162842 0.233999967575073242 1.60399997234344482
-1.3619999885559082 0.233999967575073242 1.60399997234344482
-1.33800005912780762 0.233999967575073242 1.60399997234344482
-1.40400004386901855 0.240000009536743164 1.60399997234344482
-1.3320000171661377 0.251999974250793457 1.60399997234344482
-1.33800005912780762 0.276000022888183594 1.60399997234344482
-1.35000002384185791 0.294000029563903809 1.60399997234344482
-1.35000002384185791 0.30000007152557373 1.60399997234344482
-1.34399998188018799 0.30000007152557373 1.60399997234344482
-1.3619999885559082 0.330000042915344238 1.60399997234344482
-1.34399998188018799 0.330000042915344238 1.60399997234344482
-1.35599994659423828 0.353999972343444824 1.60399997234344482
-1.34399998188018799 0.360000014305114746 1.60399997234344482
-1.35599994659423828 0.378000020980834961 1.60399997234344482
-1.3619999885559082 0.402000069618225098 1.60399997234344482
-1.35599994659423828 0.425999999046325684 1.60399997234344482
-1.20000004768371582 0.437999963760375977 1.60399997234344482
-1.17599999904632568 0.437999963760375977 1.60399997234344482
-1.14600002765655518 0.437999963760375977 1.60399997234344482
-1.30200004577636719 0.444000005722045898 1.60399997234344482
-1.29600000381469727 0.444000005722045898 1.60399997234344482
-1.25999999046325684 0.444000005722045898 1.60399997234344482
-1.24800002574920654 0.444000005722045898 1.60399997234344482
-1.16999995708465576 0.444000005722045898 1.60399997234344482
-1.12199997901916504 0.444000005722045898 1.60399997234344482
-1.09800004959106445 0.444000005722045898 1.60399997234344482
-1.06799995899200439 0.444000005722045898 1.60399997234344482
-1.04999995231628418 0.444000005722045898 1.60399997234344482
-0.983999967575073242 0.444000005722045898 1.60399997234344482
-0.972000002861022949 0.444000005722045898 1.60399997234344482
-0.948000013828277588 0.444000005722045898 1.60399997234344482
-0.89999997615814209 0.444000005722045898 1.60399997234344482
-1.36800003051757812 0.45000004768371582 1.60399997234344482
-1.30799996852874756 0.45000004768371582 1.60399997234344482
-1.28999996185302734 0.45000004768371582 1.60399997234344482
-1.27199995517730713 0.45000004768371582 1.60399997234344482
-1.24800002574920654 0.45000004768371582 1.60399997234344482
-1.10399997234344482 0.45000004768371582 1.60399997234344482
-1.07999992370605469 0.45000004768371582 1.60399997234344482
-1.07400000095367432 0.45000004768371582 1.60399997234344482
-1.04400002956390381 0.45000004768371582 1.60399997234344482
-1.01999998092651367 0.45000004768371582 1.60399997234344482
-0.995999991893768311 0.45000004768371582 1.60399997234344482
-0.93599998950958252 0.45000004768371582 1.60399997234344482
-0.924000024795532227 0.45000004768371582 1.60399997234344482
-0.89999997615814209 0.45000004768371582 1.60399997234344482
-0.870000004768371582 0.45000004768371582 1.60399997234344482
-1.34399998188018799 0.455999970436096191 1.60399997234344482
-0.875999987125396729 0.480000019073486328 1.60399997234344482
-0.870000004768371582 0.480000019073486328 1.60399997234344482
-0.881999969482421875 0.503999948501586914 1.60399997234344482
-0.917999982833862305 0.533999919891357422 1.60399997234344482
-1.09200000762939453 0.660000085830688477 1.60399997234344482
-1.09200000762939453 0.677999973297119141 1.60399997234344482
-1.11599993705749512 0.696000099182128906 1.60399997234344482
-1.11599993705749512 0.701999902725219727 1.60399997234344482
-1.13999998569488525 0.707999944686889648 1.60399997234344482
-1.08599996566772461 0.720000028610229492 1.60399997234344482
-1.07400000095367432 0.720000028610229492 1.60399997234344482
-1.04999995231628418 0.720000028610229492 1.60399997234344482
-1.09800004959106445 0.726000070571899414 1.60399997234344482
-1.07400000095367432 0.726000070571899414 1.60399997234344482
-1.04999995231628418 0.726000070571899414 1.60399997234344482
-1.01999998092651367 0.726000070571899414 1.60399997234344482
-0.995999991893768311 0.726000070571899414 1.60399997234344482
-1.12800002098083496 0.732000112533569336 1.60399997234344482
-1.12199997901916504 0.732000112533569336 1.60399997234344482
-0.972000002861022949 0.732000112533569336 1.60399997234344482
-0.948000013828277588 0.732000112533569336 1.60399997234344482
-0.948000013828277588 0.75 1.60399997234344482
-1.04999995231628418 0.756000041961669922 1.60399997234344482
-1.0559999942779541 0.762000083923339844 1.60399997234344482
-1.03200006484985352 0.779999971389770508 1.60399997234344482
-1.25399994850158691 -0.527999997138977051 1.61000001430511475
-1.25399994850158691 -0.498000025749206543 1.61000001430511475
-1.24800002574920654 -0.312000036239624023 1.61000001430511475
-1.27199995517730713 -0.167999982833862305 1.61000001430511475
-1.28999996185302734 -0.14999997615814209 1.61000001430511475
-1.28999996185302734 -0.0180000066757202148 1.61000001430511475
-1.32599997520446777 -0.011999964714050293 1.61000001430511475
-1.01999998092651367 0.444000005722045898 1.61000001430511475
-0.906000018119812012 0.444000005722045898 1.61000001430511475
-1.10399997234344482 0.666000127792358398 1.61000001430511475
-1.01999998092651367 0.720000028610229492 1.61000001430511475
-1.28999996185302734 -0.0479999780654907227 1.61600005626678467
-1.3320000171661377 0.0540000200271606445 1.61600005626678467
-1.29600000381469727 0.138000011444091797 1.61600005626678467
-1.34399998188018799 0.378000020980834961 1.61600005626678467
-0.870000004768371582 0.444000005722045898 1.61600005626678467
-1.0559999942779541 0.779999971389770508 1.61600005626678467
-1.25399994850158691 -0.509999990463256836 1.62199997901916504
-1.25399994850158691 -0.437999963760375977 1.62199997901916504
-1.24800002574920654 -0.348000049591064453 1.62199997901916504
-1.27199995517730713 -0.240000009536743164 1.62199997901916504
-1.29600000381469727 0 1.62199997901916504
-1.28400003910064697 0.0540000200271606445 1.62199997901916504
-1.35000002384185791 0.222000002861022949 1.62199997901916504
-1.34399998188018799 0.402000069618225098 1.62199997901916504
-1.34399998188018799 0.425999999046325684 1.62199997901916504
-0.870000004768371582 0.503999948501586914 1.62199997901916504
-0.953999996185302734 0.630000114440917969 1.62199997901916504
-0.995999991893768311 0.720000028610229492 1.62199997901916504
-1.15199995040893555 0.726000070571899414 1.62199997901916504
-1.24800002574920654 -0.527999997138977051 1.62800002098083496
-1.24199998378753662 -0.522000014781951904 1.62800002098083496
-1.24800002574920654 -0.462000012397766113 1.62800002098083496
-1.25399994850158691 -0.455999970436096191 1.62800002098083496
-1.25999999046325684 -0.444000005722045898 1.62800002098083496
-1.25399994850158691 -0.419999957084655762 1.62800002098083496
-1.24800002574920654 -0.414000034332275391 1.62800002098083496
-1.23600006103515625 -0.378000020980834961 1.62800002098083496
-1.25399994850158691 -0.371999979019165039 1.62800002098083496
-1.24800002574920654 -0.371999979019165039 1.62800002098083496
-1.26600003242492676 -0.348000049591064453 1.62800002098083496
-1.24800002574920654 -0.348000049591064453 1.62800002098083496
-1.25399994850158691 -0.324000000953674316 1.62800002098083496
-1.25999999046325684 -0.29999995231628418 1.62800002098083496
-1.28400003910064697 -0.26399993896484375 1.62800002098083496
-1.27199995517730713 -0.258000016212463379 1.62800002098083496
-1.27199995517730713 -0.245999932289123535 1.62800002098083496
-1.27799999713897705 -0.240000009536743164 1.62800002098083496
-1.28400003910064697 -0.18599998950958252 1.62800002098083496
-1.27199995517730713 -0.18599998950958252 1.62800002098083496
-1.27799999713897705 -0.174000024795532227 1.62800002098083496
-1.27199995517730713 -0.174000024795532227 1.62800002098083496
-1.28400003910064697 -0.0900000333786010742 1.62800002098083496
-1.24800002574920654 -0.0900000333786010742 1.62800002098083496
-1.31400001049041748 -0.0299999713897705078 1.62800002098083496
-1.29600000381469727 -0.0239999294281005859 1.62800002098083496
-1.30799996852874756 0.00600004196166992188 1.62800002098083496
-1.29600000381469727 0.00600004196166992188 1.62800002098083496
-1.31999993324279785 0.0479999780654907227 1.62800002098083496
-1.31400001049041748 0.0600000619888305664 1.62800002098083496
-1.29600000381469727 0.0659999847412109375 1.62800002098083496
-1.31999993324279785 0.0780000686645507812 1.62800002098083496
-1.29600000381469727 0.0959999561309814453 1.62800002098083496
-1.30799996852874756 0.101999998092651367 1.62800002098083496
-1.29600000381469727 0.108000040054321289 1.62800002098083496
-1.30799996852874756 0.126000046730041504 1.62800002098083496
-1.35000002384185791 0.222000002861022949 1.62800002098083496
-1.34399998188018799 0.222000002861022949 1.62800002098083496
-1.43400001525878906 0.228000044822692871 1.62800002098083496
-1.3619999885559082 0.228000044822692871 1.62800002098083496
-1.3320000171661377 0.228000044822692871 1.62800002098083496
-1.31999993324279785 0.228000044822692871 1.62800002098083496
-1.40999996662139893 0.240000009536743164 1.62800002098083496
-1.32599997520446777 0.251999974250793457 1.62800002098083496
-1.3320000171661377 0.276000022888183594 1.62800002098083496
-1.33800005912780762 0.30000007152557373 1.62800002098083496
-1.34399998188018799 0.330000042915344238 1.62800002098083496
-1.35000002384185791 0.335999965667724609 1.62800002098083496
-1.33800005912780762 0.353999972343444824 1.62800002098083496
-1.35000002384185791 0.371999979019165039 1.62800002098083496
-1.35000002384185791 0.378000020980834961 1.62800002098083496
-1.34399998188018799 0.378000020980834961 1.62800002098083496
-1.35599994659423828 0.402000069618225098 1.62800002098083496
-1.34399998188018799 0.402000069618225098 1.62800002098083496
-1.35000002384185791 0.425999999046325684 1.62800002098083496
-1.27199995517730713 0.432000041007995605 1.62800002098083496
-1.24199998378753662 0.432000041007995605 1.62800002098083496
-1.21200001239776611 0.432000041007995605 1.62800002098083496
-1.1940000057220459 0.432000041007995605 1.62800002098083496
-1.12199997901916504 0.432000041007995605 1.62800002098083496
-1.29600000381469727 0.437999963760375977 1.62800002098083496
-1.16999995708465576 0.437999963760375977 1.62800002098083496
-1.14600002765655518 0.437999963760375977 1.62800002098083496
-1.09800004959106445 0.437999963760375977 1.62800002098083496
-1.07400000095367432 0.437999963760375977 1.62800002098083496
-1.04999995231628418 0.437999963760375977 1.62800002098083496
-1.00199997425079346 0.437999963760375977 1.62800002098083496
-0.977999985218048096 0.437999963760375977 1.62800002098083496
-0.972000002861022949 0.437999963760375977 1.62800002098083496
-0.948000013828277588 0.437999963760375977 1.62800002098083496
-0.917999982833862305 0.437999963760375977 1.62800002098083496
-0.888000011444091797 0.437999963760375977 1.62800002098083496
-0.870000004768371582 0.437999963760375977 1.62800002098083496
-1.31400001049041748 0.444000005722045898 1.62800002098083496
-1.3619999885559082 0.45000004768371582 1.62800002098083496
-1.3320000171661377 0.45000004768371582 1.62800002098083496
-1.31400001049041748 0.45000004768371582 1.62800002098083496
-1.24199998378753662 0.45000004768371582 1.62800002098083496
-1.1940000057220459 0.45000004768371582 1.62800002098083496
-0.864000022411346436 0.45000004768371582 1.62800002098083496
-0.870000004768371582 0.480000019073486328 1.62800002098083496
-0.875999987125396729 0.503999948501586914 1.62800002098083496
-0.870000004768371582 0.503999948501586914 1.62800002098083496
-0.912000000476837158 0.528000116348266602 1.62800002098083496
-0.959999978542327881 0.618000030517578125 1.62800002098083496
-0.948000013828277588 0.618000030517578125 1.62800002098083496
-0.959999978542327881 0.630000114440917969 1.62800002098083496
-0.948000013828277588 0.630000114440917969 1.62800002098083496
-1.09200000762939453 0.654000043869018555 1.62800002098083496
-1.11599993705749512 0.690000057220458984 1.62800002098083496
-1.12800002098083496 0.701999902725219727 1.62800002098083496
-1.12199997901916504 0.701999902725219727 1.62800002098083496
-1.09800004959106445 0.71399998664855957 1.62800002098083496
-1.07400000095367432 0.71399998664855957 1.62800002098083496
-1.03799998760223389 0.71399998664855957 1.62800002098083496
-1.01999998092651367 0.71399998664855957 1.62800002098083496
-0.995999991893768311 0.720000028610229492 1.62800002098083496
-1.15199995040893555 0.726000070571899414 1.62800002098083496
-1.14600002765655518 0.726000070571899414 1.62800002098083496
-1.00199997425079346 0.726000070571899414 1.62800002098083496
-0.995999991893768311 0.726000070571899414 1.62800002098083496
-0.972000002861022949 0.726000070571899414 1.62800002098083496
-0.948000013828277588 0.726000070571899414 1.62800002098083496
-0.924000024795532227 0.732000112533569336 1.62800002098083496
-1.02600002288818359 0.737999916076660156 1.62800002098083496
-1.12199997901916504 0.743999958038330078 1.62800002098083496
-1.12199997901916504 0.75 1.62800002098083496
-1.04400002956390381 0.75 1.62800002098083496
-0.93599998950958252 0.75 1.62800002098083496
-1.07400000095367432 0.78600001335144043 1.62800002098083496
-1.24800002574920654 -0.317999958992004395 1.63400006294250488
-1.28400003910064697 -0.215999960899353027 1.63400006294250488
-1.28400003910064697 -0.108000040054321289 1.63400006294250488
-1.28999996185302734 0.0299999713897705078 1.63400006294250488
-1.32599997520446777 0.0839999914169311523 1.63400006294250488
-1.34399998188018799 0.14999997615814209 1.63400006294250488
-1.31999993324279785 0.251999974250793457 1.63400006294250488
-1.31999993324279785 0.282000064849853516 1.63400006294250488
-1.34399998188018799 0.425999999046325684 1.63400006294250488
-1.28400003910064697 0.45000004768371582 1.63400006294250488
-0.977999985218048096 0.618000030517578125 1.63400006294250488
-0.977999985218048096 0.630000114440917969 1.63400006294250488
-0.972000002861022949 0.720000028610229492 1.63400006294250488
-0.948000013828277588 0.720000028610229492 1.63400006294250488
-1.07400000095367432 0.743999958038330078 1.63400006294250488
-1.12800002098083496 0.75 1.63400006294250488
-1.07999992370605469 0.803999900817871094 1.63400006294250488
-1.07400000095367432 0.803999900817871094 1.63400006294250488
-1.27199995517730713 -0.203999996185302734 1.63999998569488525
-1.25399994850158691 -0.0900000333786010742 1.63999998569488525
-1.29600000381469727 0.126000046730041504 1.63999998569488525
-1.07999992370605469 0.45000004768371582 1.63999998569488525
-0.972000002861022949 0.654000043869018555 1.63999998569488525
-0.948000013828277588 0.654000043869018555 1.63999998569488525
-0.924000024795532227 0.720000028610229492 1.63999998569488525
-1.07999992370605469 0.737999916076660156 1.63999998569488525
-1.0559999942779541 0.75 1.63999998569488525
-1.28400003910064697 -0.0299999713897705078 1.64600002765655518
-1.27199995517730713 0.0240000486373901367 1.64600002765655518
-1.15199995040893555 0.45000004768371582 1.64600002765655518
-1.00199997425079346 0.611999988555908203 1.64600002765655518
-0.924000024795532227 0.618000030517578125 1.64600002765655518
-1.04999995231628418 0.624000072479248047 1.64600002765655518
-1.00800001621246338 0.630000114440917969 1.64600002765655518
-0.924000024795532227 0.630000114440917969 1.64600002765655518
-1.09800004959106445 0.677999973297119141 1.64600002765655518
-0.924000024795532227 0.75 1.64600002765655518
-1.23000001907348633 -0.383999943733215332 1.65199995040893555
-1.23600006103515625 -0.371999979019165039 1.65199995040893555
-1.25399994850158691 -0.348000049591064453 1.65199995040893555
-1.26600003242492676 -0.251999974250793457 1.65199995040893555
-1.26600003242492676 -0.245999932289123535 1.65199995040893555
-1.26600003242492676 -0.215999960899353027 1.65199995040893555
-1.26600003242492676 -0.197999954223632812 1.65199995040893555
-1.26600003242492676 -0.108000040054321289 1.65199995040893555
-1.25399994850158691 -0.0839999914169311523 1.65199995040893555
-1.29600000381469727 -0.0299999713897705078 1.65199995040893555
-1.29600000381469727 -0.0239999294281005859 1.65199995040893555
-1.29600000381469727 0.011999964714050293 1.65199995040893555
-1.30799996852874756 0.0180000066757202148 1.65199995040893555
-1.27199995517730713 0.0240000486373901367 1.65199995040893555
-1.28999996185302734 0.0299999713897705078 1.65199995040893555
-1.31400001049041748 0.0420000553131103516 1.65199995040893555
-1.29600000381469727 0.0540000200271606445 1.65199995040893555
-1.31400001049041748 0.0780000686645507812 1.65199995040893555
-1.28999996185302734 0.0780000686645507812 1.65199995040893555
-1.29600000381469727 0.101999998092651367 1.65199995040893555
-1.29600000381469727 0.126000046730041504 1.65199995040893555
-1.30200004577636719 0.131999969482421875 1.65199995040893555
-1.33800005912780762 0.210000038146972656 1.65199995040893555
-1.31999993324279785 0.222000002861022949 1.65199995040893555
-1.32599997520446777 0.228000044822692871 1.65199995040893555
-1.31999993324279785 0.228000044822692871 1.65199995040893555
-1.31999993324279785 0.251999974250793457 1.65199995040893555
-1.32599997520446777 0.264000058174133301 1.65199995040893555
-1.32599997520446777 0.276000022888183594 1.65199995040893555
-1.31999993324279785 0.282000064849853516 1.65199995040893555
-1.3320000171661377 0.30000007152557373 1.65199995040893555
-1.3320000171661377 0.330000042915344238 1.65199995040893555
-1.33800005912780762 0.353999972343444824 1.65199995040893555
-1.33800005912780762 0.378000020980834961 1.65199995040893555
-1.35000002384185791 0.396000027656555176 1.65199995040893555
-1.34399998188018799 0.402000069618225098 1.65199995040893555
-1.34399998188018799 0.425999999046325684 1.65199995040893555
-1.27199995517730713 0.425999999046325684 1.65199995040893555
-1.24800002574920654 0.425999999046325684 1.65199995040893555
-1.22399997711181641 0.425999999046325684 1.65199995040893555
-1.1940000057220459 0.425999999046325684 1.65199995040893555
-1.15199995040893555 0.425999999046325684 1.65199995040893555
-1.14600002765655518 0.425999999046325684 1.65199995040893555
-1.09800004959106445 0.425999999046325684 1.65199995040893555
-1.01399993896484375 0.425999999046325684 1.65199995040893555
-0.995999991893768311 0.425999999046325684 1.65199995040893555
-1.12199997901916504 0.432000041007995605 1.65199995040893555
-1.07400000095367432 0.432000041007995605 1.65199995040893555
-1.04999995231628418 0.432000041007995605 1.65199995040893555
-0.972000002861022949 0.432000041007995605 1.65199995040893555
-0.948000013828277588 0.432000041007995605 1.65199995040893555
-0.924000024795532227 0.432000041007995605 1.65199995040893555
-0.89999997615814209 0.432000041007995605 1.65199995040893555
-0.870000004768371582 0.432000041007995605 1.65199995040893555
-1.35000002384185791 0.437999963760375977 1.65199995040893555
-1.30799996852874756 0.437999963760375977 1.65199995040893555
-1.29600000381469727 0.437999963760375977 1.65199995040893555
-1.34399998188018799 0.45000004768371582 1.65199995040893555
-1.31999993324279785 0.45000004768371582 1.65199995040893555
-0.857999980449676514 0.45000004768371582 1.65199995040893555
-0.864000022411346436 0.480000019073486328 1.65199995040893555
-0.870000004768371582 0.503999948501586914 1.65199995040893555
-0.881999969482421875 0.509999990463256836 1.65199995040893555
-0.995999991893768311 0.599999904632568359 1.65199995040893555
-1.00800001621246338 0.605999946594238281 1.65199995040893555
-0.995999991893768311 0.605999946594238281 1.65199995040893555
-0.972000002861022949 0.605999946594238281 1.65199995040893555
-0.948000013828277588 0.605999946594238281 1.65199995040893555
-0.924000024795532227 0.611999988555908203 1.65199995040893555
-1.00800001621246338 0.630000114440917969 1.65199995040893555
-0.995999991893768311 0.630000114440917969 1.65199995040893555
-0.930000007152557373 0.630000114440917969 1.65199995040893555
-0.924000024795532227 0.630000114440917969 1.65199995040893555
-0.972000002861022949 0.635999917984008789 1.65199995040893555
-0.972000002861022949 0.654000043869018555 1.65199995040893555
-0.93599998950958252 0.654000043869018555 1.65199995040893555
-1.09800004959106445 0.660000085830688477 1.65199995040893555
-1.10399997234344482 0.671999931335449219 1.65199995040893555
-1.11000001430511475 0.684000015258789062 1.65199995040893555
-1.12800002098083496 0.696000099182128906 1.65199995040893555
-1.12199997901916504 0.701999902725219727 1.65199995040893555
-1.12800002098083496 0.707999944686889648 1.65199995040893555
-1.09800004959106445 0.707999944686889648 1.65199995040893555
-1.07400000095367432 0.707999944686889648 1.65199995040893555
-1.04999995231628418 0.707999944686889648 1.65199995040893555
-1.01999998092651367 0.71399998664855957 1.65199995040893555
-0.995999991893768311 0.71399998664855957 1.65199995040893555
-0.972000002861022949 0.71399998664855957 1.65199995040893555
-0.948000013828277588 0.71399998664855957 1.65199995040893555
-0.924000024795532227 0.720000028610229492 1.65199995040893555
-0.917999982833862305 0.726000070571899414 1.65199995040893555
-1.07999992370605469 0.732000112533569336 1.65199995040893555
-1.06799995899200439 0.732000112533569336 1.65199995040893555
-1.11599993705749512 0.737999916076660156 1.65199995040893555
-1.04999995231628418 0.737999916076660156 1.65199995040893555
-1.06200003623962402 0.75 1.65199995040893555
-1.04999995231628418 0.75 1.65199995040893555
-0.924000024795532227 0.75 1.65199995040893555
-0.930000007152557373 0.762000083923339844 1.65199995040893555
-0.93599998950958252 0.779999971389770508 1.65199995040893555
-1.10399997234344482 0.803999900817871094 1.65199995040893555
-1.25399994850158691 -0.353999972343444824 1.65799999237060547
-1.24800002574920654 -0.348000049591064453 1.65799999237060547
-1.27799999713897705 -0.335999965667724609 1.65799999237060547
-1.28400003910064697 -0.167999982833862305 1.65799999237060547
-1.27199995517730713 0.0299999713897705078 1.65799999237060547
-1.30200004577636719 0.0540000200271606445 1.65799999237060547
-1.23600006103515625 0.420000076293945312 1.65799999237060547
-0.846000015735626221 0.437999963760375977 1.65799999237060547
-0.846000015735626221 0.45000004768371582 1.65799999237060547
-1.00800001621246338 0.599999904632568359 1.65799999237060547
-0.972000002861022949 0.599999904632568359 1.65799999237060547
-0.948000013828277588 0.599999904632568359 1.65799999237060547
-1.02600002288818359 0.618000030517578125 1.65799999237060547
-1.0559999942779541 0.630000114440917969 1.65799999237060547
-0.977999985218048096 0.654000043869018555 1.65799999237060547
-1.12199997901916504 0.75 1.65799999237060547
-1.24800002574920654 -0.258000016212463379 1.66400003433227539
-1.24199998378753662 -0.203999996185302734 1.66400003433227539
-1.24800002574920654 -0.192000031471252441 1.66400003433227539
-1.27799999713897705 -0.179999947547912598 1.66400003433227539
-1.27199995517730713 -0.174000024795532227 1.66400003433227539
-1.26600003242492676 -0.126000046730041504 1.66400003433227539
-1.27799999713897705 -0.11399996280670166 1.66400003433227539
-1.27799999713897705 -0.0779999494552612305 1.66400003433227539
-1.35000002384185791 0.210000038146972656 1.66400003433227539
-1.21799993515014648 0.420000076293945312 1.66400003433227539
-1.15199995040893555 0.420000076293945312 1.66400003433227539
-1.13400006294250488 0.420000076293945312 1.66400003433227539
-1.35000002384185791 0.45000004768371582 1.66400003433227539
-1.03200006484985352 0.630000114440917969 1.66400003433227539
-1.23000001907348633 -0.414000034332275391 1.66999995708465576
-1.27199995517730713 0.0600000619888305664 1.66999995708465576
-1.31999993324279785 0.312000036239624023 1.66999995708465576
-1.35000002384185791 0.342000007629394531 1.66999995708465576
-1.31999993324279785 0.342000007629394531 1.66999995708465576
-1.25399994850158691 0.420000076293945312 1.66999995708465576
-1.1940000057220459 0.420000076293945312 1.66999995708465576
-1.04400002956390381 0.420000076293945312 1.66999995708465576
-0.977999985218048096 0.420000076293945312 1.66999995708465576
-0.972000002861022949 0.420000076293945312 1.66999995708465576
-0.924000024795532227 0.599999904632568359 1.66999995708465576
-1.09800004959106445 0.696000099182128906 1.66999995708465576
-0.983999967575073242 0.737999916076660156 1.66999995708465576
-0.924000024795532227 0.779999971389770508 1.66999995708465576
-1.22399997711181641 -0.419999957084655762 1.67599999904632568
-1.23600006103515625 -0.414000034332275391 1.67599999904632568
-1.25399994850158691 -0.348000049591064453 1.67599999904632568
-1.24800002574920654 -0.348000049591064453 1.67599999904632568
-1.25399994850158691 -0.258000016212463379 1.67599999904632568
-1.24800002574920654 -0.258000016212463379 1.67599999904632568
-1.26600003242492676 -0.245999932289123535 1.67599999904632568
-1.26600003242492676 -0.222000002861022949 1.67599999904632568
-1.24800002574920654 -0.215999960899353027 1.67599999904632568
-1.27799999713897705 -0.197999954223632812 1.67599999904632568
-1.27199995517730713 -0.197999954223632812 1.67599999904632568
-1.24800002574920654 -0.192000031471252441 1.67599999904632568
-1.27799999713897705 -0.174000024795532227 1.67599999904632568
-1.27199995517730713 -0.161999940872192383 1.67599999904632568
-1.27199995517730713 -0.14999997615814209 1.67599999904632568
-1.27199995517730713 -0.120000004768371582 1.67599999904632568
-1.28400003910064697 -0.0779999494552612305 1.67599999904632568
-1.28400003910064697 -0.0720000267028808594 1.67599999904632568
-1.29600000381469727 -0.0180000066757202148 1.67599999904632568
-1.28999996185302734 0 1.67599999904632568
-1.29600000381469727 0.0540000200271606445 1.67599999904632568
-1.30200004577636719 0.0780000686645507812 1.67599999904632568
-1.29600000381469727 0.0780000686645507812 1.67599999904632568
-1.28400003910064697 0.101999998092651367 1.67599999904632568
-1.28999996185302734 0.126000046730041504 1.67599999904632568
-1.30799996852874756 0.131999969482421875 1.67599999904632568
-1.34399998188018799 0.210000038146972656 1.67599999904632568
-1.31999993324279785 0.215999960899353027 1.67599999904632568
-1.31400001049041748 0.228000044822692871 1.67599999904632568
-1.30799996852874756 0.251999974250793457 1.67599999904632568
-1.31999993324279785 0.276000022888183594 1.67599999904632568
-1.32599997520446777 0.294000029563903809 1.67599999904632568
-1.32599997520446777 0.30000007152557373 1.67599999904632568
-1.31999993324279785 0.305999994277954102 1.67599999904632568
-1.3320000171661377 0.330000042915344238 1.67599999904632568
-1.35000002384185791 0.342000007629394531 1.67599999904632568
-1.33800005912780762 0.353999972343444824 1.67599999904632568
-1.35000002384185791 0.360000014305114746 1.67599999904632568
-1.3320000171661377 0.378000020980834961 1.67599999904632568
-1.33800005912780762 0.402000069618225098 1.67599999904632568
-1.23600006103515625 0.414000034332275391 1.67599999904632568
-1.22399997711181641 0.414000034332275391 1.67599999904632568
-1.25999999046325684 0.420000076293945312 1.67599999904632568
-1.1940000057220459 0.420000076293945312 1.67599999904632568
-1.16999995708465576 0.420000076293945312 1.67599999904632568
-1.14600002765655518 0.420000076293945312 1.67599999904632568
