ply
format ascii 1.0
element vertex 775
property float x
property float y
property float z
end_header
-0.26399993896484375 0.228000044822692871 1.48399996757507324
-0.0959999561309814453 0.251999974250793457 1.48399996757507324
-0.120000004768371582 0.276000022888183594 1.48399996757507324
-0.203999996185302734 0.287999987602233887 1.48399996757507324
-0.401999950408935547 0.330000042915344238 1.48399996757507324
-0.396000027656555176 0.330000042915344238 1.48399996757507324
-0.371999979019165039 0.330000042915344238 1.48399996757507324
-0.995999991893768311 0.737999916076660156 1.48399996757507324
-0.276000022888183594 0.14999997615814209 1.49000000953674316
-0.360000014305114746 0.228000044822692871 1.49000000953674316
-0.342000007629394531 0.228000044822692871 1.49000000953674316
-0.324000000953674316 0.228000044822692871 1.49000000953674316
-0.192000031471252441 0.228000044822692871 1.49000000953674316
-0.0720000267028808594 0.251999974250793457 1.49000000953674316
-0.0479999780654907227 0.251999974250793457 1.49000000953674316
-0.0959999561309814453 0.276000022888183594 1.49000000953674316
-0.389999985694885254 0.353999972343444824 1.49000000953674316
-1.04999995231628418 0.737999916076660156 1.49000000953674316
-1.0559999942779541 0.743999958038330078 1.49000000953674316
-1.01399993896484375 0.743999958038330078 1.49000000953674316
-0.0299999713897705078 0.162000060081481934 1.49600005149841309
-0.0779999494552612305 0.222000002861022949 1.49600005149841309
-0.174000024795532227 0.228000044822692871 1.49600005149841309
-0.0239999294281005859 0.228000044822692871 1.49600005149841309
-0.0720000267028808594 0.276000022888183594 1.49600005149841309
-0.0479999780654907227 0.276000022888183594 1.49600005149841309
-0.143999934196472168 0.30000007152557373 1.49600005149841309
-0.348000049591064453 0.335999965667724609 1.49600005149841309
-0.324000000953674316 0.335999965667724609 1.49600005149841309
-0.29999995231628418 0.335999965667724609 1.49600005149841309
-0.269999980926513672 0.342000007629394531 1.49600005149841309
-0.407999992370605469 0.353999972343444824 1.49600005149841309
-0.371999979019165039 0.353999972343444824 1.49600005149841309
-0.348000049591064453 0.353999972343444824 1.49600005149841309
-1.07999992370605469 0.743999958038330078 1.49600005149841309
-1.06200003623962402 0.75 1.49600005149841309
-1.04999995231628418 0.75 1.49600005149841309
-1.01999998092651367 0.75 1.49600005149841309
-0.0599999427795410156 0.180000066757202148 1.50199997425079346
-0.0360000133514404297 0.180000066757202148 1.50199997425079346
-0.156000018119812012 0.210000038146972656 1.50199997425079346
-0.0299999713897705078 0.210000038146972656 1.50199997425079346
-0.0779999494552612305 0.215999960899353027 1.50199997425079346
-0.131999969482421875 0.222000002861022949 1.50199997425079346
-0.167999982833862305 0.228000044822692871 1.50199997425079346
-0.0839999914169311523 0.228000044822692871 1.50199997425079346
-0.108000040054321289 0.233999967575073242 1.50199997425079346
-0.0299999713897705078 0.233999967575073242 1.50199997425079346
-0.0360000133514404297 0.251999974250793457 1.50199997425079346
-0.0659999847412109375 0.269999980926513672 1.50199997425079346
-0.305999994277954102 0.276000022888183594 1.50199997425079346
-0.276000022888183594 0.276000022888183594 1.50199997425079346
-0.222000002861022949 0.276000022888183594 1.50199997425079346
-0.0839999914169311523 0.276000022888183594 1.50199997425079346
-0.0720000267028808594 0.276000022888183594 1.50199997425079346
-0.0479999780654907227 0.276000022888183594 1.50199997425079346
-0.414000034332275391 0.282000064849853516 1.50199997425079346
-0.348000049591064453 0.287999987602233887 1.50199997425079346
-0.179999947547912598 0.287999987602233887 1.50199997425079346
-0.101999998092651367 0.287999987602233887 1.50199997425079346
-0.174000024795532227 0.294000029563903809 1.50199997425079346
-0.414000034332275391 0.30000007152557373 1.50199997425079346
-0.14999997615814209 0.30000007152557373 1.50199997425079346
-0.120000004768371582 0.30000007152557373 1.50199997425079346
-0.365999937057495117 0.305999994277954102 1.50199997425079346
-0.360000014305114746 0.330000042915344238 1.50199997425079346
-0.348000049591064453 0.330000042915344238 1.50199997425079346
-0.414000034332275391 0.335999965667724609 1.50199997425079346
-0.324000000953674316 0.335999965667724609 1.50199997425079346
-0.29999995231628418 0.335999965667724609 1.50199997425079346
-0.269999980926513672 0.335999965667724609 1.50199997425079346
-0.245999932289123535 0.342000007629394531 1.50199997425079346
-0.222000002861022949 0.342000007629394531 1.50199997425079346
-0.197999954223632812 0.348000049591064453 1.50199997425079346
-0.407999992370605469 0.353999972343444824 1.50199997425079346
-0.371999979019165039 0.353999972343444824 1.50199997425079346
-0.348000049591064453 0.353999972343444824 1.50199997425079346
-0.324000000953674316 0.353999972343444824 1.50199997425079346
-0.29999995231628418 0.353999972343444824 1.50199997425079346
-0.269999980926513672 0.353999972343444824 1.50199997425079346
-0.245999932289123535 0.353999972343444824 1.50199997425079346
-0.396000027656555176 0.360000014305114746 1.50199997425079346
-0.407999992370605469 0.378000020980834961 1.50199997425079346
-0.396000027656555176 0.378000020980834961 1.50199997425079346
-0.371999979019165039 0.378000020980834961 1.50199997425079346
-0.912000000476837158 0.732000112533569336 1.50199997425079346
-0.89999997615814209 0.732000112533569336 1.50199997425079346
-1.07999992370605469 0.737999916076660156 1.50199997425079346
-1.07400000095367432 0.737999916076660156 1.50199997425079346
-1.04999995231628418 0.737999916076660156 1.50199997425079346
-1.00800001621246338 0.737999916076660156 1.50199997425079346
-0.995999991893768311 0.737999916076660156 1.50199997425079346
-0.972000002861022949 0.737999916076660156 1.50199997425079346
-0.948000013828277588 0.737999916076660156 1.50199997425079346
-1.08599996566772461 0.75 1.50199997425079346
-1.07400000095367432 0.75 1.50199997425079346
-1.04400002956390381 0.75 1.50199997425079346
-0.0659999847412109375 0.203999996185302734 1.50800001621246338
-0.126000046730041504 0.228000044822692871 1.50800001621246338
-0.365999937057495117 0.282000064849853516 1.50800001621246338
-0.378000020980834961 0.294000029563903809 1.50800001621246338
-0.156000018119812012 0.30000007152557373 1.50800001621246338
-0.0959999561309814453 0.30000007152557373 1.50800001621246338
-0.0720000267028808594 0.30000007152557373 1.50800001621246338
-0.0479999780654907227 0.30000007152557373 1.50800001621246338
-0.174000024795532227 0.342000007629394531 1.50800001621246338
-0.222000002861022949 0.353999972343444824 1.50800001621246338
-0.197999954223632812 0.353999972343444824 1.50800001621246338
-0.174000024795532227 0.353999972343444824 1.50800001621246338
-0.348000049591064453 0.378000020980834961 1.50800001621246338
-0.407999992370605469 0.402000069618225098 1.50800001621246338
-0.396000027656555176 0.402000069618225098 1.50800001621246338
-0.371999979019165039 0.402000069618225098 1.50800001621246338
-0.864000022411346436 0.726000070571899414 1.50800001621246338
-1.11000001430511475 0.737999916076660156 1.50800001621246338
-1.11000001430511475 0.75 1.50800001621246338
-0.378000020980834961 0.305999994277954102 1.5140000581741333
-0.14999997615814209 0.348000049591064453 1.5140000581741333
-0.14999997615814209 0.353999972343444824 1.5140000581741333
-0.324000000953674316 0.378000020980834961 1.5140000581741333
-0.29999995231628418 0.378000020980834961 1.5140000581741333
-0.401999950408935547 0.425999999046325684 1.5140000581741333
-0.396000027656555176 0.425999999046325684 1.5140000581741333
-0.371999979019165039 0.425999999046325684 1.5140000581741333
-1.12800002098083496 0.743999958038330078 1.5140000581741333
-1.13400006294250488 0.75 1.5140000581741333
-1.01999998092651367 0.75 1.5140000581741333
-0.348000049591064453 0.324000000953674316 1.51999998092651367
-0.0779999494552612305 0.330000042915344238 1.51999998092651367
-0.0720000267028808594 0.330000042915344238 1.51999998092651367
-0.120000004768371582 0.348000049591064453 1.51999998092651367
-0.120000004768371582 0.353999972343444824 1.51999998092651367
-0.269999980926513672 0.378000020980834961 1.51999998092651367
-0.245999932289123535 0.378000020980834961 1.51999998092651367
-0.396000027656555176 0.45000004768371582 1.51999998092651367
-0.371999979019165039 0.45000004768371582 1.51999998092651367
-0.846000015735626221 0.726000070571899414 1.51999998092651367
-0.0659999847412109375 0.222000002861022949 1.52600002288818359
-0.0900000333786010742 0.246000051498413086 1.52600002288818359
-0.0419999361038208008 0.246000051498413086 1.52600002288818359
-0.0360000133514404297 0.258000016212463379 1.52600002288818359
-0.0360000133514404297 0.276000022888183594 1.52600002288818359
-0.126000046730041504 0.30000007152557373 1.52600002288818359
-0.120000004768371582 0.30000007152557373 1.52600002288818359
-0.0959999561309814453 0.305999994277954102 1.52600002288818359
-0.0419999361038208008 0.305999994277954102 1.52600002288818359
-0.371999979019165039 0.317999958992004395 1.52600002288818359
-0.348000049591064453 0.324000000953674316 1.52600002288818359
-0.324000000953674316 0.324000000953674316 1.52600002288818359
-0.29999995231628418 0.324000000953674316 1.52600002288818359
-0.0540000200271606445 0.324000000953674316 1.52600002288818359
-0.317999958992004395 0.330000042915344238 1.52600002288818359
-0.29999995231628418 0.330000042915344238 1.52600002288818359
-0.269999980926513672 0.330000042915344238 1.52600002288818359
-0.245999932289123535 0.330000042915344238 1.52600002288818359
-0.0839999914169311523 0.330000042915344238 1.52600002288818359
-0.0720000267028808594 0.330000042915344238 1.52600002288818359
-0.0479999780654907227 0.330000042915344238 1.52600002288818359
-0.222000002861022949 0.335999965667724609 1.52600002288818359
-0.197999954223632812 0.335999965667724609 1.52600002288818359
-0.174000024795532227 0.335999965667724609 1.52600002288818359
-0.407999992370605469 0.342000007629394531 1.52600002288818359
-0.14999997615814209 0.342000007629394531 1.52600002288818359
-0.120000004768371582 0.342000007629394531 1.52600002288818359
-0.414000034332275391 0.353999972343444824 1.52600002288818359
-0.138000011444091797 0.353999972343444824 1.52600002288818359
-0.120000004768371582 0.353999972343444824 1.52600002288818359
-0.0959999561309814453 0.353999972343444824 1.52600002288818359
-0.0720000267028808594 0.353999972343444824 1.52600002288818359
-0.156000018119812012 0.360000014305114746 1.52600002288818359
-0.179999947547912598 0.366000056266784668 1.52600002288818359
-0.245999932289123535 0.371999979019165039 1.52600002288818359
-0.222000002861022949 0.371999979019165039 1.52600002288818359
-0.276000022888183594 0.378000020980834961 1.52600002288818359
-0.269999980926513672 0.378000020980834961 1.52600002288818359
-0.245999932289123535 0.378000020980834961 1.52600002288818359
-0.222000002861022949 0.378000020980834961 1.52600002288818359
-0.197999954223632812 0.378000020980834961 1.52600002288818359
-0.174000024795532227 0.378000020980834961 1.52600002288818359
-0.324000000953674316 0.389999985694885254 1.52600002288818359
-0.414000034332275391 0.396000027656555176 1.52600002288818359
-0.348000049591064453 0.396000027656555176 1.52600002288818359
-0.414000034332275391 0.402000069618225098 1.52600002288818359
-0.353999972343444824 0.402000069618225098 1.52600002288818359
-0.365999937057495117 0.425999999046325684 1.52600002288818359
-0.407999992370605469 0.437999963760375977 1.52600002288818359
-0.378000020980834961 0.437999963760375977 1.52600002288818359
-0.407999992370605469 0.45000004768371582 1.52600002288818359
-0.396000027656555176 0.45000004768371582 1.52600002288818359
-0.371999979019165039 0.45000004768371582 1.52600002288818359
-0.924000024795532227 0.720000028610229492 1.52600002288818359
-1.07999992370605469 0.726000070571899414 1.52600002288818359
-1.06799995899200439 0.726000070571899414 1.52600002288818359
-1.04999995231628418 0.726000070571899414 1.52600002288818359
-1.01399993896484375 0.726000070571899414 1.52600002288818359
-0.995999991893768311 0.726000070571899414 1.52600002288818359
-0.972000002861022949 0.726000070571899414 1.52600002288818359
-0.948000013828277588 0.726000070571899414 1.52600002288818359
-0.924000024795532227 0.726000070571899414 1.52600002288818359
-0.89999997615814209 0.726000070571899414 1.52600002288818359
-0.870000004768371582 0.726000070571899414 1.52600002288818359
-0.846000015735626221 0.726000070571899414 1.52600002288818359
-0.821999967098236084 0.726000070571899414 1.52600002288818359
-1.10399997234344482 0.732000112533569336 1.52600002288818359
-1.12800002098083496 0.737999916076660156 1.52600002288818359
-0.0540000200271606445 0.264000058174133301 1.53200006484985352
-0.383999943733215332 0.30000007152557373 1.53200006484985352
-0.14999997615814209 0.378000020980834961 1.53200006484985352
-0.407999992370605469 0.480000019073486328 1.53200006484985352
-0.396000027656555176 0.480000019073486328 1.53200006484985352
-0.371999979019165039 0.480000019073486328 1.53200006484985352
-1.04400002956390381 0.720000028610229492 1.53200006484985352
-0.0540000200271606445 0.276000022888183594 1.53799998760223389
-0.269999980926513672 0.324000000953674316 1.53799998760223389
-0.120000004768371582 0.378000020980834961 1.53799998760223389
-0.0959999561309814453 0.378000020980834961 1.53799998760223389
-0.0720000267028808594 0.378000020980834961 1.53799998760223389
-0.407999992370605469 0.503999948501586914 1.53799998760223389
-0.396000027656555176 0.503999948501586914 1.53799998760223389
-1.0559999942779541 0.720000028610229492 1.53799998760223389
-0.966000020503997803 0.720000028610229492 1.53799998760223389
-0.948000013828277588 0.720000028610229492 1.53799998760223389
-0.893999993801116943 0.720000028610229492 1.53799998760223389
-0.791999995708465576 0.726000070571899414 1.53799998760223389
-0.773999989032745361 0.726000070571899414 1.53799998760223389
-1.15799999237060547 0.737999916076660156 1.53799998760223389
-0.245999932289123535 0.324000000953674316 1.54400002956390381
-0.222000002861022949 0.324000000953674316 1.54400002956390381
-0.0479999780654907227 0.353999972343444824 1.54400002956390381
-0.0900000333786010742 0.402000069618225098 1.54400002956390381
-0.371999979019165039 0.503999948501586914 1.54400002956390381
-0.396000027656555176 0.528000116348266602 1.54400002956390381
-1.01999998092651367 0.720000028610229492 1.54400002956390381
-0.995999991893768311 0.720000028610229492 1.54400002956390381
-0.870000004768371582 0.720000028610229492 1.54400002956390381
-1.17599999904632568 0.75 1.54400002956390381
-1.16999995708465576 0.75 1.54400002956390381
-0.389999985694885254 0.294000029563903809 1.54999995231628418
-0.371999979019165039 0.294000029563903809 1.54999995231628418
-0.0479999780654907227 0.378000020980834961 1.54999995231628418
-0.360000014305114746 0.384000062942504883 1.54999995231628418
-0.378000020980834961 0.396000027656555176 1.54999995231628418
-0.276000022888183594 0.402000069618225098 1.54999995231628418
-0.269999980926513672 0.402000069618225098 1.54999995231628418
-0.240000009536743164 0.402000069618225098 1.54999995231628418
-0.14999997615814209 0.402000069618225098 1.54999995231628418
-0.120000004768371582 0.402000069618225098 1.54999995231628418
-0.0720000267028808594 0.402000069618225098 1.54999995231628418
-0.407999992370605469 0.528000116348266602 1.54999995231628418
-1.10399997234344482 0.720000028610229492 1.54999995231628418
-1.09800004959106445 0.720000028610229492 1.54999995231628418
-0.846000015735626221 0.720000028610229492 1.54999995231628418
-0.75 0.726000070571899414 1.54999995231628418
-1.17599999904632568 0.743999958038330078 1.54999995231628418
-0.383999943733215332 0.294000029563903809 1.5559999942779541
-0.360000014305114746 0.294000029563903809 1.5559999942779541
-0.365999937057495117 0.30000007152557373 1.5559999942779541
-0.330000042915344238 0.30000007152557373 1.5559999942779541
-0.324000000953674316 0.30000007152557373 1.5559999942779541
-0.108000040054321289 0.305999994277954102 1.5559999942779541
-0.0959999561309814453 0.305999994277954102 1.5559999942779541
-0.29999995231628418 0.317999958992004395 1.5559999942779541
-0.269999980926513672 0.317999958992004395 1.5559999942779541
-0.0599999427795410156 0.317999958992004395 1.5559999942779541
-0.245999932289123535 0.324000000953674316 1.5559999942779541
-0.222000002861022949 0.324000000953674316 1.5559999942779541
-0.197999954223632812 0.324000000953674316 1.5559999942779541
-0.174000024795532227 0.324000000953674316 1.5559999942779541
-0.179999947547912598 0.330000042915344238 1.5559999942779541
-0.174000024795532227 0.330000042915344238 1.5559999942779541
-0.14999997615814209 0.330000042915344238 1.5559999942779541
-0.120000004768371582 0.330000042915344238 1.5559999942779541
-0.0959999561309814453 0.330000042915344238 1.5559999942779541
-0.0540000200271606445 0.330000042915344238 1.5559999942779541
-0.0540000200271606445 0.353999972343444824 1.5559999942779541
-0.0540000200271606445 0.378000020980834961 1.5559999942779541
-0.0479999780654907227 0.378000020980834961 1.5559999942779541
-0.330000042915344238 0.384000062942504883 1.5559999942779541
-0.324000000953674316 0.384000062942504883 1.5559999942779541
-0.29999995231628418 0.384000062942504883 1.5559999942779541
-0.269999980926513672 0.396000027656555176 1.5559999942779541
-0.251999974250793457 0.402000069618225098 1.5559999942779541
-0.245999932289123535 0.402000069618225098 1.5559999942779541
-0.222000002861022949 0.402000069618225098 1.5559999942779541
-0.197999954223632812 0.402000069618225098 1.5559999942779541
-0.174000024795532227 0.402000069618225098 1.5559999942779541
-0.14999997615814209 0.402000069618225098 1.5559999942779541
-0.120000004768371582 0.402000069618225098 1.5559999942779541
-0.0599999427795410156 0.402000069618225098 1.5559999942779541
-0.0959999561309814453 0.407999992370605469 1.5559999942779541
-0.383999943733215332 0.414000034332275391 1.5559999942779541
-0.407999992370605469 0.425999999046325684 1.5559999942779541
-0.0900000333786010742 0.425999999046325684 1.5559999942779541
-0.0720000267028808594 0.425999999046325684 1.5559999942779541
-0.383999943733215332 0.437999963760375977 1.5559999942779541
-0.414000034332275391 0.45000004768371582 1.5559999942779541
-0.378000020980834961 0.45000004768371582 1.5559999942779541
-0.371999979019165039 0.455999970436096191 1.5559999942779541
-0.419999957084655762 0.480000019073486328 1.5559999942779541
-0.371999979019165039 0.480000019073486328 1.5559999942779541
-0.419999957084655762 0.503999948501586914 1.5559999942779541
-0.371999979019165039 0.503999948501586914 1.5559999942779541
-0.378000020980834961 0.52200007438659668 1.5559999942779541
-0.414000034332275391 0.528000116348266602 1.5559999942779541
-0.378000020980834961 0.528000116348266602 1.5559999942779541
-0.371999979019165039 0.528000116348266602 1.5559999942779541
-0.407999992370605469 0.552000045776367188 1.5559999942779541
-0.396000027656555176 0.552000045776367188 1.5559999942779541
-0.371999979019165039 0.552000045776367188 1.5559999942779541
-1.07999992370605469 0.71399998664855957 1.5559999942779541
-1.07400000095367432 0.71399998664855957 1.5559999942779541
-1.04999995231628418 0.71399998664855957 1.5559999942779541
-0.990000009536743164 0.71399998664855957 1.5559999942779541
-0.959999978542327881 0.71399998664855957 1.5559999942779541
-0.948000013828277588 0.71399998664855957 1.5559999942779541
-0.924000024795532227 0.71399998664855957 1.5559999942779541
-1.12800002098083496 0.720000028610229492 1.5559999942779541
-1.12199997901916504 0.720000028610229492 1.5559999942779541
-1.01999998092651367 0.720000028610229492 1.5559999942779541
-0.89999997615814209 0.720000028610229492 1.5559999942779541
-0.870000004768371582 0.720000028610229492 1.5559999942779541
-0.846000015735626221 0.720000028610229492 1.5559999942779541
-0.821999967098236084 0.720000028610229492 1.5559999942779541
-1.15199995040893555 0.726000070571899414 1.5559999942779541
-1.14600002765655518 0.726000070571899414 1.5559999942779541
-1.12199997901916504 0.726000070571899414 1.5559999942779541
-1.09800004959106445 0.726000070571899414 1.5559999942779541
-0.995999991893768311 0.726000070571899414 1.5559999942779541
-0.972000002861022949 0.726000070571899414 1.5559999942779541
-0.948000013828277588 0.726000070571899414 1.5559999942779541
-0.846000015735626221 0.726000070571899414 1.5559999942779541
-0.821999967098236084 0.726000070571899414 1.5559999942779541
-0.797999978065490723 0.726000070571899414 1.5559999942779541
-0.773999989032745361 0.726000070571899414 1.5559999942779541
-0.75 0.726000070571899414 1.5559999942779541
-1.01999998092651367 0.737999916076660156 1.5559999942779541
-1.18799996376037598 0.743999958038330078 1.5559999942779541
-1.18799996376037598 0.75 1.5559999942779541
-0.14999997615814209 0.324000000953674316 1.56200003623962402
-0.240000009536743164 0.396000027656555176 1.56200003623962402
-0.101999998092651367 0.425999999046325684 1.56200003623962402
-0.378000020980834961 0.480000019073486328 1.56200003623962402
-0.425999999046325684 0.498000025749206543 1.56200003623962402
-0.425999999046325684 0.503999948501586914 1.56200003623962402
-0.401999950408935547 0.575999975204467773 1.56200003623962402
-0.396000027656555176 0.575999975204467773 1.56200003623962402
-0.779999971389770508 0.720000028610229492 1.56200003623962402
-0.761999964714050293 0.720000028610229492 1.56200003623962402
-1.03200006484985352 0.726000070571899414 1.56200003623962402
-0.719999969005584717 0.726000070571899414 1.56200003623962402
0.0959999561309814453 0.0180000066757202148 1.56799995899200439
0.101999998092651367 0.0180000066757202148 1.56799995899200439
0.126000046730041504 0.0180000066757202148 1.56799995899200439
0.156000018119812012 0.0180000066757202148 1.56799995899200439
0.180000066757202148 0.0240000486373901367 1.56799995899200439
0.126000046730041504 0.0299999713897705078 1.56799995899200439
0.156000018119812012 0.0299999713897705078 1.56799995899200439
0.180000066757202148 0.0299999713897705078 1.56799995899200439
-0.179999947547912598 0.396000027656555176 1.56799995899200439
-0.101999998092651367 0.45000004768371582 1.56799995899200439
-0.0959999561309814453 0.45000004768371582 1.56799995899200439
-0.0720000267028808594 0.45000004768371582 1.56799995899200439
-0.371999979019165039 0.575999975204467773 1.56799995899200439
-1.15199995040893555 0.720000028610229492 1.56799995899200439
-1.07400000095367432 0.726000070571899414 1.56799995899200439
-0.695999979972839355 0.726000070571899414 1.56799995899200439
-0.00600004196166992188 -0.0180000066757202148 1.57400000095367432
-0.444000005722045898 -0.00600004196166992188 1.57400000095367432
-0.324000000953674316 -0.00600004196166992188 1.57400000095367432
-0.480000019073486328 0 1.57400000095367432
-0.467999935150146484 0 1.57400000095367432
-0.444000005722045898 0 1.57400000095367432
-0.011999964714050293 0 1.57400000095367432
0 0.00600004196166992188 1.57400000095367432
0.0299999713897705078 0.00600004196166992188 1.57400000095367432
-0.0419999361038208008 0.011999964714050293 1.57400000095367432
0.0540000200271606445 0.011999964714050293 1.57400000095367432
0.203999996185302734 0.0240000486373901367 1.57400000095367432
-0.233999967575073242 0.0299999713897705078 1.57400000095367432
0.0959999561309814453 0.0299999713897705078 1.57400000095367432
0.101999998092651367 0.0299999713897705078 1.57400000095367432
0.203999996185302734 0.0299999713897705078 1.57400000095367432
-0.210000038146972656 0.389999985694885254 1.57400000095367432
-0.161999940872192383 0.389999985694885254 1.57400000095367432
-0.14999997615814209 0.396000027656555176 1.57400000095367432
-0.0959999561309814453 0.480000019073486328 1.57400000095367432
-0.0720000267028808594 0.480000019073486328 1.57400000095367432
-0.414000034332275391 0.605999946594238281 1.57400000095367432
-0.396000027656555176 0.605999946594238281 1.57400000095367432
-0.75 0.720000028610229492 1.57400000095367432
-0.671999990940093994 0.726000070571899414 1.57400000095367432
-0.414000034332275391 -0.0299999713897705078 1.58000004291534424
-0.401999950408935547 -0.0239999294281005859 1.58000004291534424
-0.396000027656555176 -0.0239999294281005859 1.58000004291534424
-0.45000004768371582 -0.0180000066757202148 1.58000004291534424
-0.00600004196166992188 -0.0180000066757202148 1.58000004291534424
-0.509999990463256836 -0.011999964714050293 1.58000004291534424
-0.498000025749206543 -0.011999964714050293 1.58000004291534424
-0.324000000953674316 -0.011999964714050293 1.58000004291534424
-0.342000007629394531 -0.00600004196166992188 1.58000004291534424
-0.527999997138977051 0 1.58000004291534424
-0.522000014781951904 0 1.58000004291534424
-0.498000025749206543 0 1.58000004291534424
-0.473999977111816406 0 1.58000004291534424
-0.444000005722045898 0 1.58000004291534424
-0.365999937057495117 0 1.58000004291534424
-0.342000007629394531 0 1.58000004291534424
-0.240000009536743164 0 1.58000004291534424
-0.11399996280670166 0 1.58000004291534424
-0.011999964714050293 0 1.58000004291534424
0 0 1.58000004291534424
0.0299999713897705078 0 1.58000004291534424
-0.401999950408935547 0.00600004196166992188 1.58000004291534424
-0.396000027656555176 0.00600004196166992188 1.58000004291534424
-0.287999987602233887 0.00600004196166992188 1.58000004291534424
-0.269999980926513672 0.00600004196166992188 1.58000004291534424
0.0540000200271606445 0.00600004196166992188 1.58000004291534424
0.0780000686645507812 0.00600004196166992188 1.58000004291534424
-0.197999954223632812 0.011999964714050293 1.58000004291534424
-0.0419999361038208008 0.011999964714050293 1.58000004291534424
0.101999998092651367 0.011999964714050293 1.58000004291534424
0.126000046730041504 0.011999964714050293 1.58000004291534424
0.156000018119812012 0.011999964714050293 1.58000004291534424
-0.174000024795532227 0.0180000066757202148 1.58000004291534424
-0.14999997615814209 0.0180000066757202148 1.58000004291534424
-0.0959999561309814453 0.0180000066757202148 1.58000004291534424
-0.0720000267028808594 0.0180000066757202148 1.58000004291534424
0.180000066757202148 0.0180000066757202148 1.58000004291534424
0.203999996185302734 0.0180000066757202148 1.58000004291534424
-0.504000008106231689 0.0299999713897705078 1.58000004291534424
-0.498000025749206543 0.0299999713897705078 1.58000004291534424
-0.455999970436096191 0.0299999713897705078 1.58000004291534424
-0.335999965667724609 0.0299999713897705078 1.58000004291534424
-0.0659999847412109375 0.0299999713897705078 1.58000004291534424
-0.0479999780654907227 0.0299999713897705078 1.58000004291534424
0.0600000619888305664 0.0299999713897705078 1.58000004291534424
0.0780000686645507812 0.0299999713897705078 1.58000004291534424
0.101999998092651367 0.0299999713897705078 1.58000004291534424
0.203999996185302734 0.0299999713897705078 1.58000004291534424
0.126000046730041504 0.0360000133514404297 1.58000004291534424
0.18599998950958252 0.0360000133514404297 1.58000004291534424
0.156000018119812012 0.0420000553131103516 1.58000004291534424
-0.305999994277954102 0.294000029563903809 1.58000004291534424
-0.29999995231628418 0.294000029563903809 1.58000004291534424
-0.29999995231628418 0.30000007152557373 1.58000004291534424
-0.269999980926513672 0.305999994277954102 1.58000004291534424
-0.18599998950958252 0.305999994277954102 1.58000004291534424
-0.174000024795532227 0.305999994277954102 1.58000004291534424
-0.245999932289123535 0.312000036239624023 1.58000004291534424
-0.222000002861022949 0.312000036239624023 1.58000004291534424
-0.14999997615814209 0.312000036239624023 1.58000004291534424
-0.120000004768371582 0.312000036239624023 1.58000004291534424
-0.0959999561309814453 0.312000036239624023 1.58000004291534424
-0.138000011444091797 0.389999985694885254 1.58000004291534424
-0.0720000267028808594 0.389999985694885254 1.58000004291534424
-0.174000024795532227 0.396000027656555176 1.58000004291534424
-0.120000004768371582 0.407999992370605469 1.58000004291534424
-0.0599999427795410156 0.407999992370605469 1.58000004291534424
-0.108000040054321289 0.425999999046325684 1.58000004291534424
-0.0599999427795410156 0.432000041007995605 1.58000004291534424
-0.0599999427795410156 0.45000004768371582 1.58000004291534424
-0.108000040054321289 0.455999970436096191 1.58000004291534424
-0.0959999561309814453 0.473999977111816406 1.58000004291534424
-0.101999998092651367 0.480000019073486328 1.58000004291534424
-0.0959999561309814453 0.480000019073486328 1.58000004291534424
-0.0720000267028808594 0.480000019073486328 1.58000004291534424
-0.407999992370605469 0.503999948501586914 1.58000004291534424
-0.389999985694885254 0.503999948501586914 1.58000004291534424
-0.101999998092651367 0.503999948501586914 1.58000004291534424
-0.0959999561309814453 0.503999948501586914 1.58000004291534424
-0.383999943733215332 0.528000116348266602 1.58000004291534424
-0.419999957084655762 0.539999961853027344 1.58000004291534424
-0.419999957084655762 0.552000045776367188 1.58000004291534424
-0.371999979019165039 0.558000087738037109 1.58000004291534424
-0.378000020980834961 0.569999933242797852 1.58000004291534424
-0.419999957084655762 0.575999975204467773 1.58000004291534424
-0.378000020980834961 0.582000017166137695 1.58000004291534424
-0.419999957084655762 0.605999946594238281 1.58000004291534424
-0.383999943733215332 0.605999946594238281 1.58000004291534424
-0.407999992370605469 0.630000114440917969 1.58000004291534424
-0.396000027656555176 0.630000114440917969 1.58000004291534424
-0.371999979019165039 0.635999917984008789 1.58000004291534424
-1.11599993705749512 0.707999944686889648 1.58000004291534424
-1.09800004959106445 0.707999944686889648 1.58000004291534424
-1.07400000095367432 0.707999944686889648 1.58000004291534424
-1.04999995231628418 0.707999944686889648 1.58000004291534424
-1.01999998092651367 0.707999944686889648 1.58000004291534424
-0.990000009536743164 0.707999944686889648 1.58000004291534424
-0.972000002861022949 0.707999944686889648 1.58000004291534424
-0.948000013828277588 0.707999944686889648 1.58000004291534424
-1.14600002765655518 0.71399998664855957 1.58000004291534424
-0.924000024795532227 0.71399998664855957 1.58000004291534424
-0.89999997615814209 0.71399998664855957 1.58000004291534424
-0.870000004768371582 0.71399998664855957 1.58000004291534424
-0.846000015735626221 0.71399998664855957 1.58000004291534424
-0.810000002384185791 0.71399998664855957 1.58000004291534424
-1.17599999904632568 0.720000028610229492 1.58000004291534424
-1.16999995708465576 0.720000028610229492 1.58000004291534424
-0.797999978065490723 0.720000028610229492 1.58000004291534424
-0.773999989032745361 0.720000028610229492 1.58000004291534424
-0.75 0.720000028610229492 1.58000004291534424
-1.18799996376037598 0.726000070571899414 1.58000004291534424
-1.16999995708465576 0.726000070571899414 1.58000004291534424
-1.14600002765655518 0.726000070571899414 1.58000004291534424
-1.10399997234344482 0.726000070571899414 1.58000004291534424
-0.731999993324279785 0.726000070571899414 1.58000004291534424
-0.719999969005584717 0.726000070571899414 1.58000004291534424
-0.695999979972839355 0.726000070571899414 1.58000004291534424
-0.671999990940093994 0.726000070571899414 1.58000004291534424
-1.20000004768371582 0.732000112533569336 1.58000004291534424
-1.03200006484985352 0.732000112533569336 1.58000004291534424
-1.00800001621246338 0.737999916076660156 1.58000004291534424
-1.20599997043609619 0.75 1.58000004291534424
-1.1940000057220459 0.75 1.58000004291534424
-0.396000027656555176 -0.0299999713897705078 1.58599996566772461
-0.527999997138977051 -0.011999964714050293 1.58599996566772461
-0.371999979019165039 -0.011999964714050293 1.58599996566772461
0 -0.011999964714050293 1.58599996566772461
-0.245999932289123535 -0.00600004196166992188 1.58599996566772461
-0.215999960899353027 -0.00600004196166992188 1.58599996566772461
-0.11399996280670166 -0.00600004196166992188 1.58599996566772461
-0.324000000953674316 0 1.58599996566772461
-0.215999960899353027 0 1.58599996566772461
-0.389999985694885254 0.0299999713897705078 1.58599996566772461
-0.371999979019165039 0.0299999713897705078 1.58599996566772461
-0.312000036239624023 0.0299999713897705078 1.58599996566772461
-0.29999995231628418 0.0299999713897705078 1.58599996566772461
-0.269999980926513672 0.0299999713897705078 1.58599996566772461
-0.245999932289123535 0.0299999713897705078 1.58599996566772461
-0.222000002861022949 0.0299999713897705078 1.58599996566772461
-0.197999954223632812 0.0299999713897705078 1.58599996566772461
-0.161999940872192383 0.0299999713897705078 1.58599996566772461
-0.14999997615814209 0.0299999713897705078 1.58599996566772461
-0.101999998092651367 0.0299999713897705078 1.58599996566772461
-0.0959999561309814453 0.0299999713897705078 1.58599996566772461
0.0180000066757202148 0.0299999713897705078 1.58599996566772461
0.0299999713897705078 0.0299999713897705078 1.58599996566772461
0.162000060081481934 0.0540000200271606445 1.58599996566772461
-0.269999980926513672 0.294000029563903809 1.58599996566772461
-0.126000046730041504 0.402000069618225098 1.58599996566772461
-0.0720000267028808594 0.503999948501586914 1.58599996566772461
-0.0959999561309814453 0.528000116348266602 1.58599996566772461
-0.407999992370605469 0.654000043869018555 1.58599996566772461
-0.396000027656555176 0.654000043869018555 1.58599996566772461
-0.719999969005584717 0.720000028610229492 1.58599996566772461
-0.684000015258789062 0.720000028610229492 1.58599996566772461
-0.642000019550323486 0.720000028610229492 1.58599996566772461
-1.09800004959106445 0.726000070571899414 1.58599996566772461
-0.995999991893768311 0.726000070571899414 1.58599996566772461
-0.648000001907348633 0.726000070571899414 1.58599996566772461
-0.287999987602233887 -0.00600004196166992188 1.59200000762939453
-0.26399993896484375 -0.00600004196166992188 1.59200000762939453
0.0299999713897705078 -0.00600004196166992188 1.59200000762939453
-0.527999997138977051 0.0299999713897705078 1.59200000762939453
-0.401999950408935547 0.0299999713897705078 1.59200000762939453
-0.0239999294281005859 0.0299999713897705078 1.59200000762939453
-0.251999974250793457 0.0540000200271606445 1.59200000762939453
-0.156000018119812012 0.0540000200271606445 1.59200000762939453
-0.0659999847412109375 0.0540000200271606445 1.59200000762939453
0.14999997615814209 0.0540000200271606445 1.59200000762939453
0.180000066757202148 0.0540000200271606445 1.59200000762939453
-0.0959999561309814453 0.425999999046325684 1.59200000762939453
-0.108000040054321289 0.528000116348266602 1.59200000762939453
-0.624000012874603271 0.726000070571899414 1.59200000762939453
-0.294000029563903809 0.0540000200271606445 1.59800004959106445
-0.210000038146972656 0.0540000200271606445 1.59800004959106445
-0.197999954223632812 0.0540000200271606445 1.59800004959106445
-0.11399996280670166 0.0540000200271606445 1.59800004959106445
-0.0959999561309814453 0.0540000200271606445 1.59800004959106445
-0.0479999780654907227 0.0540000200271606445 1.59800004959106445
0.00600004196166992188 0.0540000200271606445 1.59800004959106445
0.0299999713897705078 0.0540000200271606445 1.59800004959106445
0.0659999847412109375 0.0540000200271606445 1.59800004959106445
0.0839999914169311523 0.0540000200271606445 1.59800004959106445
0.108000040054321289 0.0540000200271606445 1.59800004959106445
0.203999996185302734 0.0540000200271606445 1.59800004959106445
-0.0720000267028808594 0.528000116348266602 1.59800004959106445
-0.108000040054321289 0.552000045776367188 1.59800004959106445
-0.0959999561309814453 0.552000045776367188 1.59800004959106445
-0.425999999046325684 0.618000030517578125 1.59800004959106445
-0.401999950408935547 0.677999973297119141 1.59800004959106445
-0.396000027656555176 0.677999973297119141 1.59800004959106445
-1.08599996566772461 0.696000099182128906 1.59800004959106445
-1.06200003623962402 0.696000099182128906 1.59800004959106445
-1.20000004768371582 0.720000028610229492 1.59800004959106445
-0.671999990940093994 0.720000028610229492 1.59800004959106445
-0.624000012874603271 0.720000028610229492 1.59800004959106445
-0.533999979496002197 -0.0239999294281005859 1.60399997234344482
-0.522000014781951904 -0.0239999294281005859 1.60399997234344482
-0.498000025749206543 -0.0239999294281005859 1.60399997234344482
-0.473999977111816406 -0.0239999294281005859 1.60399997234344482
-0.330000042915344238 -0.0239999294281005859 1.60399997234344482
-0.324000000953674316 -0.0239999294281005859 1.60399997234344482
-0.360000014305114746 -0.0180000066757202148 1.60399997234344482
0 -0.0180000066757202148 1.60399997234344482
-0.245999932289123535 -0.011999964714050293 1.60399997234344482
-0.215999960899353027 -0.011999964714050293 1.60399997234344482
-0.419999957084655762 -0.00600004196166992188 1.60399997234344482
-0.29999995231628418 -0.00600004196166992188 1.60399997234344482
-0.269999980926513672 -0.00600004196166992188 1.60399997234344482
-0.0959999561309814453 -0.00600004196166992188 1.60399997234344482
-0.0479999780654907227 -0.00600004196166992188 1.60399997234344482
0.0299999713897705078 -0.00600004196166992188 1.60399997234344482
0.0540000200271606445 -0.00600004196166992188 1.60399997234344482
-0.546000003814697266 0 1.60399997234344482
-0.203999996185302734 0 1.60399997234344482
-0.197999954223632812 0 1.60399997234344482
-0.174000024795532227 0 1.60399997234344482
-0.14999997615814209 0 1.60399997234344482
-0.0959999561309814453 0 1.60399997234344482
-0.0479999780654907227 0 1.60399997234344482
0.0720000267028808594 0 1.60399997234344482
0.0780000686645507812 0 1.60399997234344482
0.101999998092651367 0 1.60399997234344482
0.126000046730041504 0 1.60399997234344482
-0.0720000267028808594 0.00600004196166992188 1.60399997234344482
0.156000018119812012 0.00600004196166992188 1.60399997234344482
0.180000066757202148 0.00600004196166992188 1.60399997234344482
0.210000038146972656 0.011999964714050293 1.60399997234344482
-0.0180000066757202148 0.0240000486373901367 1.60399997234344482
-0.533999979496002197 0.0299999713897705078 1.60399997234344482
-0.419999957084655762 0.0299999713897705078 1.60399997234344482
-0.126000046730041504 0.0299999713897705078 1.60399997234344482
-0.0180000066757202148 0.0299999713897705078 1.60399997234344482
0.215999960899353027 0.0299999713897705078 1.60399997234344482
-0.515999972820281982 0.0360000133514404297 1.60399997234344482
-0.498000025749206543 0.0360000133514404297 1.60399997234344482
-0.396000027656555176 0.0360000133514404297 1.60399997234344482
-0.348000049591064453 0.0360000133514404297 1.60399997234344482
-0.120000004768371582 0.0360000133514404297 1.60399997234344482
0 0.0360000133514404297 1.60399997234344482
-0.473999977111816406 0.0420000553131103516 1.60399997234344482
-0.371999979019165039 0.0420000553131103516 1.60399997234344482
-0.240000009536743164 0.0420000553131103516 1.60399997234344482
0.0299999713897705078 0.0420000553131103516 1.60399997234344482
0.0540000200271606445 0.0420000553131103516 1.60399997234344482
-0.305999994277954102 0.0479999780654907227 1.60399997234344482
-0.29999995231628418 0.0479999780654907227 1.60399997234344482
-0.215999960899353027 0.0479999780654907227 1.60399997234344482
-0.0959999561309814453 0.0479999780654907227 1.60399997234344482
0.0780000686645507812 0.0479999780654907227 1.60399997234344482
0.101999998092651367 0.0479999780654907227 1.60399997234344482
-0.29999995231628418 0.0540000200271606445 1.60399997234344482
-0.269999980926513672 0.0540000200271606445 1.60399997234344482
-0.210000038146972656 0.0540000200271606445 1.60399997234344482
-0.197999954223632812 0.0540000200271606445 1.60399997234344482
-0.174000024795532227 0.0540000200271606445 1.60399997234344482
-0.120000004768371582 0.0540000200271606445 1.60399997234344482
-0.0959999561309814453 0.0540000200271606445 1.60399997234344482
-0.0540000200271606445 0.0540000200271606445 1.60399997234344482
-0.011999964714050293 0.0540000200271606445 1.60399997234344482
0 0.0540000200271606445 1.60399997234344482
0.0299999713897705078 0.0540000200271606445 1.60399997234344482
0.0540000200271606445 0.0540000200271606445 1.60399997234344482
0.0780000686645507812 0.0540000200271606445 1.60399997234344482
0.101999998092651367 0.0540000200271606445 1.60399997234344482
0.126000046730041504 0.0540000200271606445 1.60399997234344482
0.18599998950958252 0.0540000200271606445 1.60399997234344482
0.203999996185302734 0.0540000200271606445 1.60399997234344482
-0.0479999780654907227 0.0600000619888305664 1.60399997234344482
0.156000018119812012 0.0600000619888305664 1.60399997234344482
-0.258000016212463379 0.30000007152557373 1.60399997234344482
-0.0900000333786010742 0.432000041007995605 1.60399997234344482
-0.0720000267028808594 0.444000005722045898 1.60399997234344482
-0.101999998092651367 0.455999970436096191 1.60399997234344482
-0.0720000267028808594 0.473999977111816406 1.60399997234344482
-0.108000040054321289 0.480000019073486328 1.60399997234344482
-0.0720000267028808594 0.480000019073486328 1.60399997234344482
-0.11399996280670166 0.503999948501586914 1.60399997234344482
-0.0720000267028808594 0.503999948501586914 1.60399997234344482
-0.11399996280670166 0.528000116348266602 1.60399997234344482
-0.0720000267028808594 0.528000116348266602 1.60399997234344482
-0.0779999494552612305 0.533999919891357422 1.60399997234344482
-0.11399996280670166 0.552000045776367188 1.60399997234344482
-0.0959999561309814453 0.552000045776367188 1.60399997234344482
-0.396000027656555176 0.575999975204467773 1.60399997234344482
-0.108000040054321289 0.575999975204467773 1.60399997234344482
-0.0959999561309814453 0.575999975204467773 1.60399997234344482
-0.414000034332275391 0.588000059127807617 1.60399997234344482
-0.383999943733215332 0.605999946594238281 1.60399997234344482
-0.419999957084655762 0.611999988555908203 1.60399997234344482
-0.419999957084655762 0.630000114440917969 1.60399997234344482
-0.425999999046325684 0.635999917984008789 1.60399997234344482
-0.378000020980834961 0.641999959945678711 1.60399997234344482
-0.419999957084655762 0.654000043869018555 1.60399997234344482
-0.378000020980834961 0.654000043869018555 1.60399997234344482
-0.414000034332275391 0.677999973297119141 1.60399997234344482
-0.383999943733215332 0.677999973297119141 1.60399997234344482
-1.13999998569488525 0.696000099182128906 1.60399997234344482
-1.12199997901916504 0.696000099182128906 1.60399997234344482
-1.09800004959106445 0.696000099182128906 1.60399997234344482
-1.07400000095367432 0.696000099182128906 1.60399997234344482
-1.04999995231628418 0.696000099182128906 1.60399997234344482
-1.01399993896484375 0.696000099182128906 1.60399997234344482
-1.16400003433227539 0.701999902725219727 1.60399997234344482
-1.14600002765655518 0.701999902725219727 1.60399997234344482
-1.12199997901916504 0.701999902725219727 1.60399997234344482
-1.09200000762939453 0.701999902725219727 1.60399997234344482
-1.07400000095367432 0.701999902725219727 1.60399997234344482
-1.04999995231628418 0.701999902725219727 1.60399997234344482
-1.01999998092651367 0.701999902725219727 1.60399997234344482
-0.995999991893768311 0.701999902725219727 1.60399997234344482
-0.972000002861022949 0.701999902725219727 1.60399997234344482
-0.948000013828277588 0.701999902725219727 1.60399997234344482
-0.924000024795532227 0.701999902725219727 1.60399997234344482
-1.18200004100799561 0.707999944686889648 1.60399997234344482
-0.89999997615814209 0.707999944686889648 1.60399997234344482
-0.870000004768371582 0.707999944686889648 1.60399997234344482
-0.846000015735626221 0.707999944686889648 1.60399997234344482
-0.821999967098236084 0.707999944686889648 1.60399997234344482
-1.20599997043609619 0.71399998664855957 1.60399997234344482
-0.797999978065490723 0.71399998664855957 1.60399997234344482
-0.773999989032745361 0.71399998664855957 1.60399997234344482
-0.75 0.71399998664855957 1.60399997234344482
-0.719999969005584717 0.720000028610229492 1.60399997234344482
-0.695999979972839355 0.720000028610229492 1.60399997234344482
-0.671999990940093994 0.720000028610229492 1.60399997234344482
-0.648000001907348633 0.720000028610229492 1.60399997234344482
-0.624000012874603271 0.720000028610229492 1.60399997234344482
-1.21200001239776611 0.726000070571899414 1.60399997234344482
-1.1940000057220459 0.726000070571899414 1.60399997234344482
-1.16999995708465576 0.726000070571899414 1.60399997234344482
-0.924000024795532227 0.726000070571899414 1.60399997234344482
-0.666000008583068848 0.726000070571899414 1.60399997234344482
-0.629999995231628418 0.726000070571899414 1.60399997234344482
-0.624000012874603271 0.726000070571899414 1.60399997234344482
-0.599999964237213135 0.726000070571899414 1.60399997234344482
-0.527999997138977051 -0.0299999713897705078 1.61000001430511475
-0.522000014781951904 -0.0299999713897705078 1.61000001430511475
-0.467999935150146484 -0.0299999713897705078 1.61000001430511475
-0.11399996280670166 -0.011999964714050293 1.61000001430511475
-0.425999999046325684 -0.00600004196166992188 1.61000001430511475
-0.197999954223632812 -0.00600004196166992188 1.61000001430511475
-0.0599999427795410156 -0.00600004196166992188 1.61000001430511475
0.0780000686645507812 -0.00600004196166992188 1.61000001430511475
-0.305999994277954102 0.0540000200271606445 1.61000001430511475
-0.269999980926513672 0.294000029563903809 1.61000001430511475
-0.0959999561309814453 0.468000054359436035 1.61000001430511475
-1.15199995040893555 0.696000099182128906 1.61000001430511475
-0.587999999523162842 0.720000028610229492 1.61000001430511475
-1.23000001907348633 0.732000112533569336 1.61000001430511475
-0.330000042915344238 -0.0299999713897705078 1.61600005626678467
-0.324000000953674316 -0.0299999713897705078 1.61600005626678467
-0.00600004196166992188 -0.0299999713897705078 1.61600005626678467
-0.174000024795532227 -0.00600004196166992188 1.61600005626678467
-0.143999934196472168 -0.00600004196166992188 1.61600005626678467
-0.467999935150146484 0.0540000200271606445 1.61600005626678467
-0.126000046730041504 0.0540000200271606445 1.61600005626678467
-0.0779999494552612305 0.491999983787536621 1.61600005626678467
-0.0779999494552612305 0.503999948501586914 1.61600005626678467
-0.11399996280670166 0.605999946594238281 1.61600005626678467
-0.0959999561309814453 0.605999946594238281 1.61600005626678467
-0.995999991893768311 0.696000099182128906 1.61600005626678467
-0.414000034332275391 0.701999902725219727 1.61600005626678467
-1.23600006103515625 0.720000028610229492 1.61600005626678467
-0.569999992847442627 0.726000070571899414 1.61600005626678467
-0.498000025749206543 -0.0299999713897705078 1.62199997901916504
0.101999998092651367 -0.00600004196166992188 1.62199997901916504
-0.258000016212463379 0 1.62199997901916504
0.14999997615814209 0.0780000686645507812 1.62199997901916504
0.156000018119812012 0.0780000686645507812 1.62199997901916504
0.180000066757202148 0.0780000686645507812 1.62199997901916504
-0.11399996280670166 0.630000114440917969 1.62199997901916504
-0.0959999561309814453 0.630000114440917969 1.62199997901916504
-0.425999999046325684 0.671999931335449219 1.62199997901916504
-0.425999999046325684 0.677999973297119141 1.62199997901916504
-1.1940000057220459 0.696000099182128906 1.62199997901916504
-0.972000002861022949 0.696000099182128906 1.62199997901916504
-0.906000018119812012 0.696000099182128906 1.62199997901916504
-0.383999943733215332 0.701999902725219727 1.62199997901916504
-0.546000003814697266 0.726000070571899414 1.62199997901916504
-0.522000014781951904 -0.0360000133514404297 1.62800002098083496
-0.473999977111816406 -0.0360000133514404297 1.62800002098083496
-0.324000000953674316 -0.0360000133514404297 1.62800002098083496
-0.533999979496002197 -0.0299999713897705078 1.62800002098083496
