ply
format ascii 1.0
element vertex 766
property float x
property float y
property float z
end_header
-1.24800002574920654 -0.75 2.35400009155273438
0.552000045776367188 -0.75 2.35400009155273438
0.618000030517578125 -0.75 2.35400009155273438
0.630000114440917969 -0.75 2.35400009155273438
0.654000043869018555 -0.744000017642974854 2.35400009155273438
0.677999973297119141 -0.744000017642974854 2.35400009155273438
0.701999902725219727 -0.737999975681304932 2.35400009155273438
0.737999916076660156 -0.731999993324279785 2.35400009155273438
-1.25399994850158691 -0.726000010967254639 2.35400009155273438
0.762000083923339844 -0.726000010967254639 2.35400009155273438
0.78600001335144043 -0.726000010967254639 2.35400009155273438
-1.25399994850158691 -0.719999969005584717 2.35400009155273438
-1.24800002574920654 -0.719999969005584717 2.35400009155273438
-1.25999999046325684 -0.695999979972839355 2.35400009155273438
-1.25999999046325684 -0.671999990940093994 2.35400009155273438
-1.26600003242492676 -0.648000001907348633 2.35400009155273438
-1.27199995517730713 -0.624000012874603271 2.35400009155273438
-1.27799999713897705 -0.599999964237213135 2.35400009155273438
-1.27199995517730713 -0.599999964237213135 2.35400009155273438
-1.28400003910064697 -0.569999992847442627 2.35400009155273438
-1.28400003910064697 -0.546000003814697266 2.35400009155273438
-1.28999996185302734 -0.522000014781951904 2.35400009155273438
-1.29600000381469727 -0.498000025749206543 2.35400009155273438
-1.30200004577636719 -0.480000019073486328 2.35400009155273438
-1.30200004577636719 -0.473999977111816406 2.35400009155273438
-1.29600000381469727 -0.473999977111816406 2.35400009155273438
-1.30799996852874756 -0.444000005722045898 2.35400009155273438
-1.31400001049041748 -0.419999957084655762 2.35400009155273438
-1.32599997520446777 -0.396000027656555176 2.35400009155273438
-1.31999993324279785 -0.396000027656555176 2.35400009155273438
-1.3320000171661377 -0.371999979019165039 2.35400009155273438
-1.31999993324279785 -0.371999979019165039 2.35400009155273438
-1.35000002384185791 -0.348000049591064453 2.35400009155273438
-1.34399998188018799 -0.348000049591064453 2.35400009155273438
-1.00199997425079346 -0.0239999294281005859 2.35400009155273438
-0.995999991893768311 -0.0239999294281005859 2.35400009155273438
-0.972000002861022949 -0.0239999294281005859 2.35400009155273438
-0.948000013828277588 -0.0239999294281005859 2.35400009155273438
0.378000020980834961 -0.779999971389770508 2.3600001335144043
0.605999946594238281 -0.755999982357025146 2.3600001335144043
0.803999900817871094 -0.726000010967254639 2.3600001335144043
-1.27199995517730713 -0.569999992847442627 2.3600001335144043
-1.3619999885559082 -0.365999937057495117 2.3600001335144043
-1.00199997425079346 -0.0299999713897705078 2.3600001335144043
-0.995999991893768311 -0.0299999713897705078 2.3600001335144043
-0.966000020503997803 -0.0299999713897705078 2.3600001335144043
-1.21200001239776611 -0.977999985218048096 2.36600017547607422
-1.1940000057220459 -0.972000002861022949 2.36600017547607422
0.402000069618225098 -0.779999971389770508 2.36600017547607422
0.425999999046325684 -0.779999971389770508 2.36600017547607422
0.45000004768371582 -0.779999971389770508 2.36600017547607422
-1.22399997711181641 -0.846000015735626221 2.37199997901916504
0.222000002861022949 -0.804000020027160645 2.37199997901916504
0.228000044822692871 -0.804000020027160645 2.37199997901916504
0.480000019073486328 -0.779999971389770508 2.37199997901916504
0.630000114440917969 -0.755999982357025146 2.37199997901916504
-1.35000002384185791 -0.432000041007995605 2.37199997901916504
-1.02600002288818359 -0.0360000133514404297 2.37199997901916504
-0.948000013828277588 -0.0360000133514404297 2.37199997901916504
-1.20599997043609619 -0.983999967575073242 2.37800002098083496
-1.1940000057220459 -0.977999985218048096 2.37800002098083496
-1.20599997043609619 -0.972000002861022949 2.37800002098083496
-1.1940000057220459 -0.972000002861022949 2.37800002098083496
-1.20599997043609619 -0.948000013828277588 2.37800002098083496
-1.21200001239776611 -0.924000024795532227 2.37800002098083496
-1.21799993515014648 -0.89999997615814209 2.37800002098083496
-1.22399997711181641 -0.870000004768371582 2.37800002098083496
-1.23000001907348633 -0.851999998092651367 2.37800002098083496
-1.23000001907348633 -0.846000015735626221 2.37800002098083496
-1.22399997711181641 -0.846000015735626221 2.37800002098083496
-1.23000001907348633 -0.821999967098236084 2.37800002098083496
0.215999960899353027 -0.804000020027160645 2.37800002098083496
0.233999967575073242 -0.804000020027160645 2.37800002098083496
0.251999974250793457 -0.804000020027160645 2.37800002098083496
-1.23600006103515625 -0.797999978065490723 2.37800002098083496
0.210000038146972656 -0.797999978065490723 2.37800002098083496
0.276000022888183594 -0.797999978065490723 2.37800002098083496
0.30000007152557373 -0.797999978065490723 2.37800002098083496
0.330000042915344238 -0.797999978065490723 2.37800002098083496
0.353999972343444824 -0.797999978065490723 2.37800002098083496
0.378000020980834961 -0.791999995708465576 2.37800002098083496
0.414000034332275391 -0.78600001335144043 2.37800002098083496
0.425999999046325684 -0.78600001335144043 2.37800002098083496
0.45000004768371582 -0.78600001335144043 2.37800002098083496
0.491999983787536621 -0.779999971389770508 2.37800002098083496
0.503999948501586914 -0.779999971389770508 2.37800002098083496
-1.24199998378753662 -0.773999989032745361 2.37800002098083496
0.546000003814697266 -0.773999989032745361 2.37800002098083496
0.552000045776367188 -0.773999989032745361 2.37800002098083496
0.582000017166137695 -0.768000006675720215 2.37800002098083496
0.605999946594238281 -0.761999964714050293 2.37800002098083496
0.641999959945678711 -0.755999982357025146 2.37800002098083496
0.660000085830688477 -0.755999982357025146 2.37800002098083496
-1.24199998378753662 -0.75 2.37800002098083496
0.677999973297119141 -0.75 2.37800002098083496
0.558000087738037109 -0.744000017642974854 2.37800002098083496
0.701999902725219727 -0.744000017642974854 2.37800002098083496
0.737999916076660156 -0.737999975681304932 2.37800002098083496
-1.24800002574920654 -0.719999969005584717 2.37800002098083496
-1.25399994850158691 -0.708000004291534424 2.37800002098083496
-1.25399994850158691 -0.695999979972839355 2.37800002098083496
-1.24800002574920654 -0.695999979972839355 2.37800002098083496
-1.25399994850158691 -0.671999990940093994 2.37800002098083496
-1.25999999046325684 -0.648000001907348633 2.37800002098083496
-1.26600003242492676 -0.624000012874603271 2.37800002098083496
-1.27199995517730713 -0.599999964237213135 2.37800002098083496
-1.27799999713897705 -0.569999992847442627 2.37800002098083496
-1.27199995517730713 -0.569999992847442627 2.37800002098083496
-1.28400003910064697 -0.546000003814697266 2.37800002098083496
-1.28999996185302734 -0.522000014781951904 2.37800002098083496
-1.28999996185302734 -0.498000025749206543 2.37800002098083496
-1.29600000381469727 -0.473999977111816406 2.37800002098083496
-1.30200004577636719 -0.467999935150146484 2.37800002098083496
-1.30799996852874756 -0.444000005722045898 2.37800002098083496
-1.31400001049041748 -0.419999957084655762 2.37800002098083496
-1.31400001049041748 -0.396000027656555176 2.37800002098083496
-1.32599997520446777 -0.371999979019165039 2.37800002098083496
-1.31999993324279785 -0.371999979019165039 2.37800002098083496
-1.34399998188018799 -0.348000049591064453 2.37800002098083496
-1.00800001621246338 -0.0419999361038208008 2.37800002098083496
-0.995999991893768311 -0.0419999361038208008 2.37800002098083496
-0.966000020503997803 -0.0419999361038208008 2.37800002098083496
-0.948000013828277588 -0.0419999361038208008 2.37800002098083496
-1.02600002288818359 -0.0360000133514404297 2.37800002098083496
-1.02600002288818359 -0.0180000066757202148 2.37800002098083496
0.276000022888183594 -0.804000020027160645 2.38400006294250488
0.324000000953674316 -0.804000020027160645 2.38400006294250488
0.330000042915344238 -0.804000020027160645 2.38400006294250488
0.762000083923339844 -0.737999975681304932 2.38400006294250488
-1.27799999713897705 -0.575999975204467773 2.38400006294250488
-1.35000002384185791 -0.425999999046325684 2.38400006294250488
-1.35000002384185791 -0.348000049591064453 2.38400006294250488
0.353999972343444824 -0.804000020027160645 2.3899998664855957
0.822000026702880859 -0.791999995708465576 2.3899998664855957
0.677999973297119141 -0.755999982357025146 2.3899998664855957
-1.29600000381469727 -0.444000005722045898 2.3899998664855957
-1.3619999885559082 -0.360000014305114746 2.3899998664855957
-1.22399997711181641 -0.821999967098236084 2.39599990844726562
0.378000020980834961 -0.804000020027160645 2.39599990844726562
0.533999919891357422 -0.779999971389770508 2.39599990844726562
-1.31999993324279785 -0.342000007629394531 2.39599990844726562
-0.941999971866607666 -0.0540000200271606445 2.39599990844726562
-1.1940000057220459 -0.990000009536743164 2.40199995040893555
-1.20000004768371582 -0.983999967575073242 2.40199995040893555
-1.20000004768371582 -0.972000002861022949 2.40199995040893555
-1.20599997043609619 -0.948000013828277588 2.40199995040893555
-1.20599997043609619 -0.924000024795532227 2.40199995040893555
-1.21799993515014648 -0.89999997615814209 2.40199995040893555
-1.22399997711181641 -0.870000004768371582 2.40199995040893555
-1.22399997711181641 -0.846000015735626221 2.40199995040893555
-1.23000001907348633 -0.839999973773956299 2.40199995040893555
-1.23000001907348633 -0.821999967098236084 2.40199995040893555
-1.22399997711181641 -0.821999967098236084 2.40199995040893555
0.228000044822692871 -0.821999967098236084 2.40199995040893555
0.251999974250793457 -0.821999967098236084 2.40199995040893555
0.222000002861022949 -0.815999984741210938 2.40199995040893555
0.276000022888183594 -0.815999984741210938 2.40199995040893555
0.30000007152557373 -0.810000002384185791 2.40199995040893555
0.330000042915344238 -0.810000002384185791 2.40199995040893555
0.353999972343444824 -0.810000002384185791 2.40199995040893555
0.378000020980834961 -0.810000002384185791 2.40199995040893555
-1.23000001907348633 -0.797999978065490723 2.40199995040893555
0.425999999046325684 -0.797999978065490723 2.40199995040893555
0.45000004768371582 -0.797999978065490723 2.40199995040893555
0.480000019073486328 -0.791999995708465576 2.40199995040893555
0.539999961853027344 -0.779999971389770508 2.40199995040893555
0.552000045776367188 -0.779999971389770508 2.40199995040893555
-1.23600006103515625 -0.773999989032745361 2.40199995040893555
0.564000129699707031 -0.773999989032745361 2.40199995040893555
0.599999904632568359 -0.768000006675720215 2.40199995040893555
0.605999946594238281 -0.768000006675720215 2.40199995040893555
0.635999917984008789 -0.768000006675720215 2.40199995040893555
0.660000085830688477 -0.761999964714050293 2.40199995040893555
0.690000057220458984 -0.755999982357025146 2.40199995040893555
-1.24199998378753662 -0.75 2.40199995040893555
-1.24800002574920654 -0.719999969005584717 2.40199995040893555
-1.24800002574920654 -0.695999979972839355 2.40199995040893555
-1.25399994850158691 -0.684000015258789062 2.40199995040893555
-1.25399994850158691 -0.671999990940093994 2.40199995040893555
-1.24800002574920654 -0.671999990940093994 2.40199995040893555
-1.25999999046325684 -0.648000001907348633 2.40199995040893555
-1.26600003242492676 -0.624000012874603271 2.40199995040893555
-1.27199995517730713 -0.599999964237213135 2.40199995040893555
-1.27799999713897705 -0.569999992847442627 2.40199995040893555
-1.27199995517730713 -0.569999992847442627 2.40199995040893555
-1.27799999713897705 -0.546000003814697266 2.40199995040893555
-1.28400003910064697 -0.522000014781951904 2.40199995040893555
-1.28999996185302734 -0.498000025749206543 2.40199995040893555
-1.29600000381469727 -0.473999977111816406 2.40199995040893555
-1.30200004577636719 -0.455999970436096191 2.40199995040893555
-1.30200004577636719 -0.444000005722045898 2.40199995040893555
-1.29600000381469727 -0.444000005722045898 2.40199995040893555
-1.30799996852874756 -0.419999957084655762 2.40199995040893555
-1.30799996852874756 -0.396000027656555176 2.40199995040893555
-1.31400001049041748 -0.371999979019165039 2.40199995040893555
-1.32599997520446777 -0.353999972343444824 2.40199995040893555
-1.3320000171661377 -0.348000049591064453 2.40199995040893555
-1.31999993324279785 -0.348000049591064453 2.40199995040893555
-1.32599997520446777 -0.324000000953674316 2.40199995040893555
-1.31999993324279785 -0.324000000953674316 2.40199995040893555
-1.03200006484985352 -0.0540000200271606445 2.40199995040893555
-1.01999998092651367 -0.0540000200271606445 2.40199995040893555
-0.972000002861022949 -0.0540000200271606445 2.40199995040893555
-1.03799998760223389 -0.0479999780654907227 2.40199995040893555
-1.01999998092651367 -0.0479999780654907227 2.40199995040893555
-0.995999991893768311 -0.0479999780654907227 2.40199995040893555
-0.972000002861022949 -0.0479999780654907227 2.40199995040893555
-0.485999941825866699 -0.0239999294281005859 2.40199995040893555
0.834000110626220703 -0.821999967098236084 2.40799999237060547
0.402000069618225098 -0.804000020027160645 2.40799999237060547
0.516000032424926758 -0.78600001335144043 2.40799999237060547
0.701999902725219727 -0.755999982357025146 2.40799999237060547
-1.27199995517730713 -0.546000003814697266 2.40799999237060547
-1.35599994659423828 -0.365999937057495117 2.40799999237060547
-1.35599994659423828 -0.348000049591064453 2.40799999237060547
-0.948000013828277588 -0.0599999427795410156 2.40799999237060547
-0.995999991893768311 -0.0540000200271606445 2.40799999237060547
-0.473999977111816406 -0.0299999713897705078 2.40799999237060547
0.233999967575073242 -0.828000009059906006 2.41400003433227539
0.425999999046325684 -0.804000020027160645 2.41400003433227539
0.45000004768371582 -0.804000020027160645 2.41400003433227539
-1.22399997711181641 -0.797999978065490723 2.41400003433227539
-1.30200004577636719 -0.606000006198883057 2.41400003433227539
-1.30799996852874756 -0.575999975204467773 2.41400003433227539
-1.30799996852874756 -0.569999992847442627 2.41400003433227539
-1.31999993324279785 -0.491999983787536621 2.41400003433227539
-1.32599997520446777 -0.485999941825866699 2.41400003433227539
-0.480000019073486328 -0.0299999713897705078 2.41400003433227539
0.258000016212463379 -0.828000009059906006 2.42000007629394531
0.834000110626220703 -0.797999978065490723 2.42000007629394531
0.575999975204467773 -0.779999971389770508 2.42000007629394531
-1.28999996185302734 -0.635999977588653564 2.42000007629394531
-1.27199995517730713 -0.522000014781951904 2.42000007629394531
-1.29600000381469727 -0.419999957084655762 2.42000007629394531
-1.18799996376037598 -1.00199997425079346 2.42600011825561523
-1.18799996376037598 -0.995999991893768311 2.42600011825561523
-1.20000004768371582 -0.972000002861022949 2.42600011825561523
-1.1940000057220459 -0.966000020503997803 2.42600011825561523
-1.20000004768371582 -0.948000013828277588 2.42600011825561523
-1.20599997043609619 -0.924000024795532227 2.42600011825561523
0.809999942779541016 -0.912000000476837158 2.42600011825561523
-1.20599997043609619 -0.89999997615814209 2.42600011825561523
0.839999914169311523 -0.881999969482421875 2.42600011825561523
-1.21200001239776611 -0.870000004768371582 2.42600011825561523
0.839999914169311523 -0.864000022411346436 2.42600011825561523
-1.22399997711181641 -0.846000015735626221 2.42600011825561523
0.246000051498413086 -0.833999991416931152 2.42600011825561523
0.264000058174133301 -0.828000009059906006 2.42600011825561523
0.834000110626220703 -0.828000009059906006 2.42600011825561523
-1.22399997711181641 -0.821999967098236084 2.42600011825561523
0.294000029563903809 -0.821999967098236084 2.42600011825561523
0.30000007152557373 -0.821999967098236084 2.42600011825561523
0.378000020980834961 -0.821999967098236084 2.42600011825561523
0.834000110626220703 -0.821999967098236084 2.42600011825561523
0.330000042915344238 -0.815999984741210938 2.42600011825561523
0.360000014305114746 -0.815999984741210938 2.42600011825561523
0.402000069618225098 -0.815999984741210938 2.42600011825561523
0.425999999046325684 -0.810000002384185791 2.42600011825561523
0.45000004768371582 -0.810000002384185791 2.42600011825561523
-1.23000001907348633 -0.797999978065490723 2.42600011825561523
-1.22399997711181641 -0.797999978065490723 2.42600011825561523
0.437999963760375977 -0.797999978065490723 2.42600011825561523
0.468000054359436035 -0.797999978065490723 2.42600011825561523
0.491999983787536621 -0.791999995708465576 2.42600011825561523
-1.23600006103515625 -0.773999989032745361 2.42600011825561523
0.660000085830688477 -0.773999989032745361 2.42600011825561523
0.684000015258789062 -0.768000006675720215 2.42600011825561523
0.71399998664855957 -0.761999964714050293 2.42600011825561523
-1.23600006103515625 -0.75 2.42600011825561523
0.803999900817871094 -0.75 2.42600011825561523
-1.24199998378753662 -0.719999969005584717 2.42600011825561523
-1.24800002574920654 -0.695999979972839355 2.42600011825561523
-1.24800002574920654 -0.671999990940093994 2.42600011825561523
-1.25399994850158691 -0.659999966621398926 2.42600011825561523
-1.25399994850158691 -0.648000001907348633 2.42600011825561523
-1.24800002574920654 -0.648000001907348633 2.42600011825561523
-1.25999999046325684 -0.624000012874603271 2.42600011825561523
-1.25999999046325684 -0.599999964237213135 2.42600011825561523
-1.26600003242492676 -0.569999992847442627 2.42600011825561523
-1.27799999713897705 -0.551999986171722412 2.42600011825561523
-1.27799999713897705 -0.546000003814697266 2.42600011825561523
-1.27199995517730713 -0.546000003814697266 2.42600011825561523
-1.27799999713897705 -0.522000014781951904 2.42600011825561523
-1.27199995517730713 -0.522000014781951904 2.42600011825561523
-1.28999996185302734 -0.498000025749206543 2.42600011825561523
-1.29600000381469727 -0.473999977111816406 2.42600011825561523
-1.29600000381469727 -0.444000005722045898 2.42600011825561523
-1.30200004577636719 -0.425999999046325684 2.42600011825561523
-1.30200004577636719 -0.419999957084655762 2.42600011825561523
-1.29600000381469727 -0.419999957084655762 2.42600011825561523
-1.30799996852874756 -0.396000027656555176 2.42600011825561523
-1.31400001049041748 -0.371999979019165039 2.42600011825561523
-1.32599997520446777 -0.348000049591064453 2.42600011825561523
-1.31999993324279785 -0.348000049591064453 2.42600011825561523
-1.32599997520446777 -0.324000000953674316 2.42600011825561523
-1.31400001049041748 -0.324000000953674316 2.42600011825561523
-1.02600002288818359 -0.0720000267028808594 2.42600011825561523
-1.01999998092651367 -0.0720000267028808594 2.42600011825561523
-0.995999991893768311 -0.0720000267028808594 2.42600011825561523
-0.959999978542327881 -0.0720000267028808594 2.42600011825561523
-0.480000019073486328 -0.0419999361038208008 2.42600011825561523
-0.473999977111816406 -0.0419999361038208008 2.42600011825561523
-0.504000008106231689 -0.0239999294281005859 2.42600011825561523
0.282000064849853516 -0.828000009059906006 2.43200016021728516
0.30000007152557373 -0.828000009059906006 2.43200016021728516
0.575999975204467773 -0.78600001335144043 2.43200016021728516
0.630000114440917969 -0.779999971389770508 2.43200016021728516
-1.22399997711181641 -0.773999989032745361 2.43200016021728516
-1.32599997520446777 -0.353999972343444824 2.43200016021728516
-1.02600002288818359 -0.0779999494552612305 2.43200016021728516
-1.0559999942779541 -0.0720000267028808594 2.43200016021728516
-0.509999990463256836 -0.0360000133514404297 2.43200016021728516
0.425999999046325684 -0.924000024795532227 2.43799996376037598
0.480000019073486328 -0.924000024795532227 2.43799996376037598
0.575999975204467773 -0.917999982833862305 2.43799996376037598
0.389999985694885254 -0.828000009059906006 2.43799996376037598
0.834000110626220703 -0.797999978065490723 2.43799996376037598
0.558000087738037109 -0.791999995708465576 2.43799996376037598
0.624000072479248047 -0.779999971389770508 2.43799996376037598
0.654000043869018555 -0.779999971389770508 2.43799996376037598
0.773999929428100586 -0.755999982357025146 2.43799996376037598
0.779999971389770508 -0.755999982357025146 2.43799996376037598
0.803999900817871094 -0.755999982357025146 2.43799996376037598
-1.06200003623962402 -0.0779999494552612305 2.43799996376037598
-1.01999998092651367 -0.0779999494552612305 2.43799996376037598
-0.995999991893768311 -0.0779999494552612305 2.43799996376037598
-1.16999995708465576 -1.00800001621246338 2.4440000057220459
0.407999992370605469 -0.930000007152557373 2.4440000057220459
0.425999999046325684 -0.930000007152557373 2.4440000057220459
0.45000004768371582 -0.930000007152557373 2.4440000057220459
0.407999992370605469 -0.924000024795532227 2.4440000057220459
0.45000004768371582 -0.924000024795532227 2.4440000057220459
0.503999948501586914 -0.924000024795532227 2.4440000057220459
0.528000116348266602 -0.924000024795532227 2.4440000057220459
0.552000045776367188 -0.917999982833862305 2.4440000057220459
0.605999946594238281 -0.917999982833862305 2.4440000057220459
0.792000055313110352 -0.917999982833862305 2.4440000057220459
0.630000114440917969 -0.912000000476837158 2.4440000057220459
0.654000043869018555 -0.912000000476837158 2.4440000057220459
0.677999973297119141 -0.912000000476837158 2.4440000057220459
0.828000068664550781 -0.912000000476837158 2.4440000057220459
0.701999902725219727 -0.906000018119812012 2.4440000057220459
0.737999916076660156 -0.906000018119812012 2.4440000057220459
0.756000041961669922 -0.906000018119812012 2.4440000057220459
0.480000019073486328 -0.89999997615814209 2.4440000057220459
0.528000116348266602 -0.89999997615814209 2.4440000057220459
0.552000045776367188 -0.89999997615814209 2.4440000057220459
0.575999975204467773 -0.89999997615814209 2.4440000057220459
0.605999946594238281 -0.89999997615814209 2.4440000057220459
0.630000114440917969 -0.89999997615814209 2.4440000057220459
0.671999931335449219 -0.89999997615814209 2.4440000057220459
0.677999973297119141 -0.89999997615814209 2.4440000057220459
0.701999902725219727 -0.89999997615814209 2.4440000057220459
0.732000112533569336 -0.89999997615814209 2.4440000057220459
0.75 -0.89999997615814209 2.4440000057220459
0.792000055313110352 -0.89999997615814209 2.4440000057220459
0.822000026702880859 -0.870000004768371582 2.4440000057220459
0.402000069618225098 -0.828000009059906006 2.4440000057220459
0.677999973297119141 -0.779999971389770508 2.4440000057220459
0.726000070571899414 -0.773999989032745361 2.4440000057220459
-1.30200004577636719 -0.546000003814697266 2.4440000057220459
-0.972000002861022949 -0.0779999494552612305 2.4440000057220459
-1.18200004100799561 -1.00800001621246338 2.45000004768371582
-1.16999995708465576 -1.00800001621246338 2.45000004768371582
-1.18200004100799561 -0.995999991893768311 2.45000004768371582
-1.18799996376037598 -0.972000002861022949 2.45000004768371582
-1.20000004768371582 -0.948000013828277588 2.45000004768371582
-1.1940000057220459 -0.948000013828277588 2.45000004768371582
0.407999992370605469 -0.93599998950958252 2.45000004768371582
0.425999999046325684 -0.93599998950958252 2.45000004768371582
0.45000004768371582 -0.93599998950958252 2.45000004768371582
0.480000019073486328 -0.930000007152557373 2.45000004768371582
0.503999948501586914 -0.930000007152557373 2.45000004768371582
0.528000116348266602 -0.930000007152557373 2.45000004768371582
-1.20599997043609619 -0.924000024795532227 2.45000004768371582
0.402000069618225098 -0.924000024795532227 2.45000004768371582
0.425999999046325684 -0.924000024795532227 2.45000004768371582
0.45000004768371582 -0.924000024795532227 2.45000004768371582
0.480000019073486328 -0.924000024795532227 2.45000004768371582
0.503999948501586914 -0.924000024795532227 2.45000004768371582
0.528000116348266602 -0.924000024795532227 2.45000004768371582
0.552000045776367188 -0.924000024795532227 2.45000004768371582
0.575999975204467773 -0.924000024795532227 2.45000004768371582
0.605999946594238281 -0.924000024795532227 2.45000004768371582
0.630000114440917969 -0.917999982833862305 2.45000004768371582
0.654000043869018555 -0.917999982833862305 2.45000004768371582
0.803999900817871094 -0.917999982833862305 2.45000004768371582
0.828000068664550781 -0.917999982833862305 2.45000004768371582
0.677999973297119141 -0.912000000476837158 2.45000004768371582
0.701999902725219727 -0.912000000476837158 2.45000004768371582
0.768000125885009766 -0.912000000476837158 2.45000004768371582
0.779999971389770508 -0.912000000476837158 2.45000004768371582
0.726000070571899414 -0.906000018119812012 2.45000004768371582
-1.20599997043609619 -0.89999997615814209 2.45000004768371582
0.407999992370605469 -0.89999997615814209 2.45000004768371582
0.425999999046325684 -0.89999997615814209 2.45000004768371582
0.45000004768371582 -0.89999997615814209 2.45000004768371582
0.480000019073486328 -0.89999997615814209 2.45000004768371582
0.503999948501586914 -0.89999997615814209 2.45000004768371582
0.528000116348266602 -0.89999997615814209 2.45000004768371582
0.552000045776367188 -0.89999997615814209 2.45000004768371582
0.575999975204467773 -0.89999997615814209 2.45000004768371582
0.605999946594238281 -0.89999997615814209 2.45000004768371582
0.630000114440917969 -0.89999997615814209 2.45000004768371582
0.654000043869018555 -0.89999997615814209 2.45000004768371582
0.677999973297119141 -0.89999997615814209 2.45000004768371582
0.701999902725219727 -0.89999997615814209 2.45000004768371582
0.726000070571899414 -0.89999997615814209 2.45000004768371582
0.75 -0.89999997615814209 2.45000004768371582
0.779999971389770508 -0.89999997615814209 2.45000004768371582
0.803999900817871094 -0.89999997615814209 2.45000004768371582
0.828000068664550781 -0.89999997615814209 2.45000004768371582
-1.21200001239776611 -0.870000004768371582 2.45000004768371582
0.432000041007995605 -0.870000004768371582 2.45000004768371582
0.503999948501586914 -0.870000004768371582 2.45000004768371582
0.552000045776367188 -0.870000004768371582 2.45000004768371582
0.588000059127807617 -0.870000004768371582 2.45000004768371582
0.605999946594238281 -0.870000004768371582 2.45000004768371582
0.630000114440917969 -0.870000004768371582 2.45000004768371582
0.654000043869018555 -0.870000004768371582 2.45000004768371582
0.684000015258789062 -0.870000004768371582 2.45000004768371582
0.701999902725219727 -0.870000004768371582 2.45000004768371582
0.726000070571899414 -0.870000004768371582 2.45000004768371582
0.756000041961669922 -0.870000004768371582 2.45000004768371582
0.779999971389770508 -0.870000004768371582 2.45000004768371582
0.803999900817871094 -0.870000004768371582 2.45000004768371582
0.828000068664550781 -0.870000004768371582 2.45000004768371582
-1.21799993515014648 -0.846000015735626221 2.45000004768371582
0.822000026702880859 -0.846000015735626221 2.45000004768371582
0.828000068664550781 -0.846000015735626221 2.45000004768371582
0.240000009536743164 -0.833999991416931152 2.45000004768371582
0.264000058174133301 -0.833999991416931152 2.45000004768371582
0.389999985694885254 -0.833999991416931152 2.45000004768371582
0.402000069618225098 -0.833999991416931152 2.45000004768371582
0.425999999046325684 -0.828000009059906006 2.45000004768371582
0.455999970436096191 -0.828000009059906006 2.45000004768371582
-1.21799993515014648 -0.821999967098236084 2.45000004768371582
0.371999979019165039 -0.821999967098236084 2.45000004768371582
0.444000005722045898 -0.821999967098236084 2.45000004768371582
0.45000004768371582 -0.821999967098236084 2.45000004768371582
0.828000068664550781 -0.821999967098236084 2.45000004768371582
-1.22399997711181641 -0.797999978065490723 2.45000004768371582
-1.23000001907348633 -0.791999995708465576 2.45000004768371582
0.635999917984008789 -0.78600001335144043 2.45000004768371582
0.660000085830688477 -0.78600001335144043 2.45000004768371582
0.684000015258789062 -0.779999971389770508 2.45000004768371582
0.701999902725219727 -0.779999971389770508 2.45000004768371582
-1.23000001907348633 -0.773999989032745361 2.45000004768371582
-1.22399997711181641 -0.773999989032745361 2.45000004768371582
0.696000099182128906 -0.773999989032745361 2.45000004768371582
0.701999902725219727 -0.773999989032745361 2.45000004768371582
0.834000110626220703 -0.773999989032745361 2.45000004768371582
0.779999971389770508 -0.761999964714050293 2.45000004768371582
0.809999942779541016 -0.761999964714050293 2.45000004768371582
-1.23600006103515625 -0.75 2.45000004768371582
-1.22399997711181641 -0.75 2.45000004768371582
-1.23600006103515625 -0.719999969005584717 2.45000004768371582
-1.24199998378753662 -0.695999979972839355 2.45000004768371582
-1.24800002574920654 -0.671999990940093994 2.45000004768371582
-1.24800002574920654 -0.648000001907348633 2.45000004768371582
-1.25399994850158691 -0.635999977588653564 2.45000004768371582
-1.25399994850158691 -0.624000012874603271 2.45000004768371582
-1.25999999046325684 -0.599999964237213135 2.45000004768371582
-1.26600003242492676 -0.569999992847442627 2.45000004768371582
-1.27199995517730713 -0.546000003814697266 2.45000004768371582
-1.27799999713897705 -0.533999979496002197 2.45000004768371582
-1.27799999713897705 -0.522000014781951904 2.45000004768371582
-1.27199995517730713 -0.522000014781951904 2.45000004768371582
-1.28400003910064697 -0.498000025749206543 2.45000004768371582
-1.28999996185302734 -0.473999977111816406 2.45000004768371582
-1.29600000381469727 -0.444000005722045898 2.45000004768371582
-1.30200004577636719 -0.425999999046325684 2.45000004768371582
-1.30200004577636719 -0.419999957084655762 2.45000004768371582
-1.30799996852874756 -0.396000027656555176 2.45000004768371582
-1.31400001049041748 -0.371999979019165039 2.45000004768371582
-1.3320000171661377 -0.348000049591064453 2.45000004768371582
-1.31999993324279785 -0.348000049591064453 2.45000004768371582
-1.06200003623962402 -0.0900000333786010742 2.45000004768371582
-1.04999995231628418 -0.0839999914169311523 2.45000004768371582
-1.01999998092651367 -0.0839999914169311523 2.45000004768371582
-0.995999991893768311 -0.0839999914169311523 2.45000004768371582
-0.972000002861022949 -0.0839999914169311523 2.45000004768371582
-0.498000025749206543 -0.0540000200271606445 2.45000004768371582
-0.473999977111816406 -0.0540000200271606445 2.45000004768371582
-0.509999990463256836 -0.0479999780654907227 2.45000004768371582
-0.498000025749206543 -0.0479999780654907227 2.45000004768371582
-0.473999977111816406 -0.0479999780654907227 2.45000004768371582
-1.20000004768371582 -0.953999996185302734 2.45599985122680664
0.552000045776367188 -0.930000007152557373 2.45599985122680664
0.414000034332275391 -0.870000004768371582 2.45599985122680664
0.45000004768371582 -0.870000004768371582 2.45599985122680664
0.480000019073486328 -0.870000004768371582 2.45599985122680664
0.528000116348266602 -0.870000004768371582 2.45599985122680664
0.71399998664855957 -0.846000015735626221 2.45599985122680664
0.726000070571899414 -0.846000015735626221 2.45599985122680664
0.75 -0.846000015735626221 2.45599985122680664
0.792000055313110352 -0.846000015735626221 2.45599985122680664
0.276000022888183594 -0.833999991416931152 2.45599985122680664
0.834000110626220703 -0.797999978065490723 2.45599985122680664
0.732000112533569336 -0.779999971389770508 2.45599985122680664
0.726000070571899414 -0.773999989032745361 2.45599985122680664
0.75 -0.773999989032745361 2.45599985122680664
-1.24800002574920654 -0.624000012874603271 2.45599985122680664
-1.29600000381469727 -0.419999957084655762 2.45599985122680664
-1.30799996852874756 -0.324000000953674316 2.45599985122680664
-1.06799995899200439 -0.0720000267028808594 2.45599985122680664
-0.504000008106231689 -0.0599999427795410156 2.45599985122680664
0.575999975204467773 -0.930000007152557373 2.46199989318847656
-1.1940000057220459 -0.924000024795532227 2.46199989318847656
0.851999998092651367 -0.888000011444091797 2.46199989318847656
0.690000057220458984 -0.846000015735626221 2.46199989318847656
0.798000097274780273 -0.821999967098236084 2.46199989318847656
0.809999942779541016 -0.821999967098236084 2.46199989318847656
-1.32599997520446777 -0.353999972343444824 2.46199989318847656
-1.35000002384185791 -0.348000049591064453 2.46199989318847656
0.605999946594238281 -0.930000007152557373 2.46799993515014648
0.803999900817871094 -0.930000007152557373 2.46799993515014648
0.851999998092651367 -0.870000004768371582 2.46799993515014648
0.396000027656555176 -0.851999998092651367 2.46799993515014648
0.773999929428100586 -0.821999967098236084 2.46799993515014648
0.815999984741210938 -0.797999978065490723 2.46799993515014648
0.75 -0.78600001335144043 2.46799993515014648
0.78600001335144043 -0.78600001335144043 2.46799993515014648
-1.04400002956390381 -0.101999998092651367 2.46799993515014648
-0.539999961853027344 -0.0720000267028808594 2.46799993515014648
0.630000114440917969 -0.930000007152557373 2.47399997711181641
0.396000027656555176 -0.875999987125396729 2.47399997711181641
-1.07400000095367432 -0.101999998092651367 2.47399997711181641
-0.582000017166137695 -0.0839999914169311523 2.47399997711181641
-1.17599999904632568 -1.01999998092651367 2.48000001907348633
-1.16999995708465576 -1.01399993896484375 2.48000001907348633
-1.17599999904632568 -0.995999991893768311 2.48000001907348633
-1.20599997043609619 -0.983999967575073242 2.48000001907348633
-1.18200004100799561 -0.972000002861022949 2.48000001907348633
-1.18799996376037598 -0.948000013828277588 2.48000001907348633
0.414000034332275391 -0.948000013828277588 2.48000001907348633
0.432000041007995605 -0.948000013828277588 2.48000001907348633
0.45000004768371582 -0.948000013828277588 2.48000001907348633
0.48600006103515625 -0.941999971866607666 2.48000001907348633
0.503999948501586914 -0.941999971866607666 2.48000001907348633
0.528000116348266602 -0.941999971866607666 2.48000001907348633
0.564000129699707031 -0.93599998950958252 2.48000001907348633
0.575999975204467773 -0.93599998950958252 2.48000001907348633
0.611999988555908203 -0.930000007152557373 2.48000001907348633
0.630000114440917969 -0.930000007152557373 2.48000001907348633
0.654000043869018555 -0.930000007152557373 2.48000001907348633
0.798000097274780273 -0.930000007152557373 2.48000001907348633
-1.20000004768371582 -0.924000024795532227 2.48000001907348633
-1.1940000057220459 -0.924000024795532227 2.48000001907348633
0.402000069618225098 -0.924000024795532227 2.48000001907348633
0.701999902725219727 -0.924000024795532227 2.48000001907348633
0.726000070571899414 -0.924000024795532227 2.48000001907348633
0.75 -0.924000024795532227 2.48000001907348633
0.779999971389770508 -0.924000024795532227 2.48000001907348633
0.809999942779541016 -0.924000024795532227 2.48000001907348633
0.851999998092651367 -0.917999982833862305 2.48000001907348633
-1.20000004768371582 -0.89999997615814209 2.48000001907348633
0.858000040054321289 -0.893999993801116943 2.48000001907348633
-1.20599997043609619 -0.870000004768371582 2.48000001907348633
0.396000027656555176 -0.870000004768371582 2.48000001907348633
0.845999956130981445 -0.870000004768371582 2.48000001907348633
0.491999983787536621 -0.864000022411346436 2.48000001907348633
0.503999948501586914 -0.864000022411346436 2.48000001907348633
0.528000116348266602 -0.864000022411346436 2.48000001907348633
0.402000069618225098 -0.857999980449676514 2.48000001907348633
0.588000059127807617 -0.857999980449676514 2.48000001907348633
0.605999946594238281 -0.857999980449676514 2.48000001907348633
0.473999977111816406 -0.851999998092651367 2.48000001907348633
0.648000001907348633 -0.851999998092651367 2.48000001907348633
0.654000043869018555 -0.851999998092651367 2.48000001907348633
0.677999973297119141 -0.851999998092651367 2.48000001907348633
0.701999902725219727 -0.851999998092651367 2.48000001907348633
0.732000112533569336 -0.851999998092651367 2.48000001907348633
0.851999998092651367 -0.851999998092651367 2.48000001907348633
-1.21200001239776611 -0.846000015735626221 2.48000001907348633
0.743999958038330078 -0.846000015735626221 2.48000001907348633
0.75 -0.846000015735626221 2.48000001907348633
0.792000055313110352 -0.846000015735626221 2.48000001907348633
0.822000026702880859 -0.846000015735626221 2.48000001907348633
0.834000110626220703 -0.846000015735626221 2.48000001907348633
0.468000054359436035 -0.839999973773956299 2.48000001907348633
-1.21799993515014648 -0.821999967098236084 2.48000001907348633
0.762000083923339844 -0.821999967098236084 2.48000001907348633
0.803999900817871094 -0.821999967098236084 2.48000001907348633
0.792000055313110352 -0.815999984741210938 2.48000001907348633
-1.22399997711181641 -0.797999978065490723 2.48000001907348633
0.737999916076660156 -0.797999978065490723 2.48000001907348633
0.75 -0.797999978065490723 2.48000001907348633
0.779999971389770508 -0.797999978065490723 2.48000001907348633
0.803999900817871094 -0.797999978065490723 2.48000001907348633
0.828000068664550781 -0.797999978065490723 2.48000001907348633
0.641999959945678711 -0.791999995708465576 2.48000001907348633
0.690000057220458984 -0.791999995708465576 2.48000001907348633
0.701999902725219727 -0.791999995708465576 2.48000001907348633
-1.22399997711181641 -0.773999989032745361 2.48000001907348633
0.839999914169311523 -0.773999989032745361 2.48000001907348633
0.803999900817871094 -0.768000006675720215 2.48000001907348633
-1.23000001907348633 -0.755999982357025146 2.48000001907348633
-1.23000001907348633 -0.75 2.48000001907348633
-1.22399997711181641 -0.75 2.48000001907348633
-1.23600006103515625 -0.719999969005584717 2.48000001907348633
-1.23600006103515625 -0.695999979972839355 2.48000001907348633
-1.24199998378753662 -0.671999990940093994 2.48000001907348633
-1.24800002574920654 -0.648000001907348633 2.48000001907348633
-1.25399994850158691 -0.642000019550323486 2.48000001907348633
-1.25399994850158691 -0.624000012874603271 2.48000001907348633
-1.24800002574920654 -0.624000012874603271 2.48000001907348633
-1.25999999046325684 -0.599999964237213135 2.48000001907348633
-1.26600003242492676 -0.569999992847442627 2.48000001907348633
-1.27199995517730713 -0.546000003814697266 2.48000001907348633
-1.27799999713897705 -0.539999961853027344 2.48000001907348633
-1.27799999713897705 -0.522000014781951904 2.48000001907348633
-1.27199995517730713 -0.522000014781951904 2.48000001907348633
-1.28400003910064697 -0.498000025749206543 2.48000001907348633
-1.27199995517730713 -0.498000025749206543 2.48000001907348633
-1.28400003910064697 -0.473999977111816406 2.48000001907348633
-1.28999996185302734 -0.444000005722045898 2.48000001907348633
-1.30200004577636719 -0.419999957084655762 2.48000001907348633
-1.29600000381469727 -0.419999957084655762 2.48000001907348633
-1.30200004577636719 -0.396000027656555176 2.48000001907348633
-1.29600000381469727 -0.396000027656555176 2.48000001907348633
-1.30799996852874756 -0.371999979019165039 2.48000001907348633
-1.31999993324279785 -0.348000049591064453 2.48000001907348633
-1.35599994659423828 -0.342000007629394531 2.48000001907348633
-1.3320000171661377 -0.342000007629394531 2.48000001907348633
-1.31999993324279785 -0.324000000953674316 2.48000001907348633
-1.08599996566772461 -0.11399996280670166 2.48000001907348633
-1.07400000095367432 -0.108000040054321289 2.48000001907348633
-1.04999995231628418 -0.108000040054321289 2.48000001907348633
-1.01999998092651367 -0.101999998092651367 2.48000001907348633
-0.959999978542327881 -0.101999998092651367 2.48000001907348633
-1.01399993896484375 -0.0959999561309814453 2.48000001907348633
-0.995999991893768311 -0.0959999561309814453 2.48000001907348633
-0.966000020503997803 -0.0959999561309814453 2.48000001907348633
-0.587999999523162842 -0.0900000333786010742 2.48000001907348633
-0.546000003814697266 -0.0779999494552612305 2.48000001907348633
-0.485999941825866699 -0.0779999494552612305 2.48000001907348633
-0.551999986171722412 -0.0720000267028808594 2.48000001907348633
-0.546000003814697266 -0.0720000267028808594 2.48000001907348633
-0.522000014781951904 -0.0720000267028808594 2.48000001907348633
-0.498000025749206543 -0.0720000267028808594 2.48000001907348633
-0.473999977111816406 -0.0720000267028808594 2.48000001907348633
0.432000041007995605 -0.953999996185302734 2.48600006103515625
0.677999973297119141 -0.930000007152557373 2.48600006103515625
0.828000068664550781 -0.924000024795532227 2.48600006103515625
0.402000069618225098 -0.893999993801116943 2.48600006103515625
0.396000027656555176 -0.875999987125396729 2.48600006103515625
0.552000045776367188 -0.864000022411346436 2.48600006103515625
0.396000027656555176 -0.839999973773956299 2.48600006103515625
0.660000085830688477 -0.797999978065490723 2.48600006103515625
0.773999929428100586 -0.773999989032745361 2.48600006103515625
0.798000097274780273 -0.773999989032745361 2.48600006103515625
-1.33800005912780762 -0.389999985694885254 2.48600006103515625
-1.32599997520446777 -0.324000000953674316 2.48600006103515625
-0.995999991893768311 -0.101999998092651367 2.48600006103515625
-0.522000014781951904 -0.0779999494552612305 2.48600006103515625
-0.527999997138977051 -0.0479999780654907227 2.48600006103515625
-0.522000014781951904 -0.0479999780654907227 2.48600006103515625
-1.16400003433227539 -1.02600002288818359 2.49200010299682617
0.809999942779541016 -0.93599998950958252 2.49200010299682617
0.839999914169311523 -0.930000007152557373 2.49200010299682617
0.75 -0.851999998092651367 2.49200010299682617
-1.22399997711181641 -0.719999969005584717 2.49200010299682617
-1.24800002574920654 -0.599999964237213135 2.49200010299682617
-1.30799996852874756 -0.509999990463256836 2.49200010299682617
-1.29600000381469727 -0.317999958992004395 2.49200010299682617
-0.551999986171722412 -0.0839999914169311523 2.49200010299682617
-0.473999977111816406 -0.0779999494552612305 2.49200010299682617
0.773999929428100586 -0.930000007152557373 2.49800014495849609
0.677999973297119141 -0.906000018119812012 2.49800014495849609
-1.1940000057220459 -0.89999997615814209 2.49800014495849609
0.52200007438659668 -0.875999987125396729 2.49800014495849609
0.743999958038330078 -0.804000020027160645 2.49800014495849609
-1.16400003433227539 -1.03200006484985352 2.50399994850158691
-1.16999995708465576 -1.01999998092651367 2.50399994850158691
-1.17599999904632568 -1.00199997425079346 2.50399994850158691
-1.17599999904632568 -0.995999991893768311 2.50399994850158691
-1.16999995708465576 -0.995999991893768311 2.50399994850158691
-1.18200004100799561 -0.972000002861022949 2.50399994850158691
-1.18799996376037598 -0.948000013828277588 2.50399994850158691
0.414000034332275391 -0.948000013828277588 2.50399994850158691
0.473999977111816406 -0.948000013828277588 2.50399994850158691
0.503999948501586914 -0.948000013828277588 2.50399994850158691
0.762000083923339844 -0.930000007152557373 2.50399994850158691
0.779999971389770508 -0.930000007152557373 2.50399994850158691
0.803999900817871094 -0.930000007152557373 2.50399994850158691
0.858000040054321289 -0.930000007152557373 2.50399994850158691
-1.1940000057220459 -0.924000024795532227 2.50399994850158691
0.407999992370605469 -0.924000024795532227 2.50399994850158691
0.839999914169311523 -0.924000024795532227 2.50399994850158691
-1.20000004768371582 -0.89999997615814209 2.50399994850158691
-1.1940000057220459 -0.89999997615814209 2.50399994850158691
0.402000069618225098 -0.888000011444091797 2.50399994850158691
0.509999990463256836 -0.875999987125396729 2.50399994850158691
0.539999961853027344 -0.875999987125396729 2.50399994850158691
0.552000045776367188 -0.875999987125396729 2.50399994850158691
-1.20000004768371582 -0.870000004768371582 2.50399994850158691
0.402000069618225098 -0.870000004768371582 2.50399994850158691
0.48600006103515625 -0.870000004768371582 2.50399994850158691
0.654000043869018555 -0.870000004768371582 2.50399994850158691
0.624000072479248047 -0.864000022411346436 2.50399994850158691
0.630000114440917969 -0.864000022411346436 2.50399994850158691
0.677999973297119141 -0.864000022411346436 2.50399994850158691
0.701999902725219727 -0.864000022411346436 2.50399994850158691
0.726000070571899414 -0.864000022411346436 2.50399994850158691
0.75 -0.857999980449676514 2.50399994850158691
0.473999977111816406 -0.851999998092651367 2.50399994850158691
-1.20599997043609619 -0.846000015735626221 2.50399994850158691
0.768000125885009766 -0.839999973773956299 2.50399994850158691
-1.21200001239776611 -0.821999967098236084 2.50399994850158691
0.762000083923339844 -0.821999967098236084 2.50399994850158691
0.743999958038330078 -0.804000020027160645 2.50399994850158691
-1.21799993515014648 -0.797999978065490723 2.50399994850158691
0.732000112533569336 -0.797999978065490723 2.50399994850158691
0.834000110626220703 -0.779999971389770508 2.50399994850158691
-1.22399997711181641 -0.773999989032745361 2.50399994850158691
-1.22399997711181641 -0.75 2.50399994850158691
-1.23000001907348633 -0.737999975681304932 2.50399994850158691
-1.23000001907348633 -0.719999969005584717 2.50399994850158691
-1.22399997711181641 -0.719999969005584717 2.50399994850158691
-1.23600006103515625 -0.695999979972839355 2.50399994850158691
-1.23600006103515625 -0.671999990940093994 2.50399994850158691
-1.24199998378753662 -0.648000001907348633 2.50399994850158691
-1.24800002574920654 -0.624000012874603271 2.50399994850158691
-1.25399994850158691 -0.61799997091293335 2.50399994850158691
-1.25399994850158691 -0.599999964237213135 2.50399994850158691
-1.24800002574920654 -0.599999964237213135 2.50399994850158691
-1.25999999046325684 -0.569999992847442627 2.50399994850158691
-1.26600003242492676 -0.546000003814697266 2.50399994850158691
-1.27199995517730713 -0.522000014781951904 2.50399994850158691
-1.27799999713897705 -0.504000008106231689 2.50399994850158691
-1.27799999713897705 -0.498000025749206543 2.50399994850158691
-1.27199995517730713 -0.498000025749206543 2.50399994850158691
-1.27799999713897705 -0.473999977111816406 2.50399994850158691
-1.28999996185302734 -0.444000005722045898 2.50399994850158691
-1.29600000381469727 -0.419999957084655762 2.50399994850158691
-1.30200004577636719 -0.401999950408935547 2.50399994850158691
-1.29600000381469727 -0.396000027656555176 2.50399994850158691
-1.30200004577636719 -0.389999985694885254 2.50399994850158691
-1.30799996852874756 -0.371999979019165039 2.50399994850158691
-1.32599997520446777 -0.348000049591064453 2.50399994850158691
-1.31999993324279785 -0.348000049591064453 2.50399994850158691
-1.29600000381469727 -0.324000000953674316 2.50399994850158691
-1.08599996566772461 -0.126000046730041504 2.50399994850158691
-1.06799995899200439 -0.126000046730041504 2.50399994850158691
-1.04999995231628418 -0.126000046730041504 2.50399994850158691
-1.09200000762939453 -0.120000004768371582 2.50399994850158691
-1.07400000095367432 -0.120000004768371582 2.50399994850158691
-1.04999995231628418 -0.120000004768371582 2.50399994850158691
-1.01999998092651367 -0.120000004768371582 2.50399994850158691
-0.995999991893768311 -0.11399996280670166 2.50399994850158691
-0.972000002861022949 -0.11399996280670166 2.50399994850158691
-0.587999999523162842 -0.0959999561309814453 2.50399994850158691
-0.551999986171722412 -0.0839999914169311523 2.50399994850158691
-0.546000003814697266 -0.0839999914169311523 2.50399994850158691
-0.522000014781951904 -0.0839999914169311523 2.50399994850158691
-0.498000025749206543 -0.0839999914169311523 2.50399994850158691
-0.473999977111816406 -0.0839999914169311523 2.50399994850158691
-0.557999968528747559 -0.0659999847412109375 2.50399994850158691
-1.16999995708465576 -0.972000002861022949 2.50999999046325684
0.414000034332275391 -0.953999996185302734 2.50999999046325684
0.528000116348266602 -0.948000013828277588 2.50999999046325684
0.839999914169311523 -0.93599998950958252 2.50999999046325684
0.732000112533569336 -0.930000007152557373 2.50999999046325684
0.845999956130981445 -0.870000004768371582 2.50999999046325684
0.851999998092651367 -0.791999995708465576 2.50999999046325684
