ply
format ascii 1.0
element vertex 773
property float x
property float y
property float z
end_header
0.246000051498413086 0.120000004768371582 1.41199994087219238
-0.480000019073486328 0.14999997615814209 1.41199994087219238
-0.437999963760375977 0.14999997615814209 1.41199994087219238
-0.804000020027160645 0.174000024795532227 1.41199994087219238
-0.504000008106231689 0.174000024795532227 1.41199994087219238
-0.75 0.198000073432922363 1.41199994087219238
-0.797999978065490723 0.269999980926513672 1.41199994087219238
-0.773999989032745361 0.269999980926513672 1.41199994087219238
-0.75 0.276000022888183594 1.41199994087219238
-0.846000015735626221 0.30000007152557373 1.41199994087219238
-0.791999995708465576 0.348000049591064453 1.41199994087219238
-0.773999989032745361 0.348000049591064453 1.41199994087219238
-0.851999998092651367 0.437999963760375977 1.41199994087219238
-0.0720000267028808594 0.120000004768371582 1.4179999828338623
-0.0479999780654907227 0.120000004768371582 1.4179999828338623
-0.473999977111816406 0.14999997615814209 1.4179999828338623
-0.779999971389770508 0.198000073432922363 1.4179999828338623
-0.810000002384185791 0.246000051498413086 1.4179999828338623
-0.75 0.269999980926513672 1.4179999828338623
-0.75 0.348000049591064453 1.4179999828338623
-0.75 0.353999972343444824 1.4179999828338623
-0.797999978065490723 0.420000076293945312 1.4179999828338623
-0.773999989032745361 0.425999999046325684 1.4179999828338623
-0.11399996280670166 0.120000004768371582 1.42400002479553223
-0.0959999561309814453 0.120000004768371582 1.42400002479553223
0.222000002861022949 0.120000004768371582 1.42400002479553223
-0.75 0.228000044822692871 1.42400002479553223
-0.804000020027160645 0.348000049591064453 1.42400002479553223
-0.810000002384185791 0.396000027656555176 1.42400002479553223
-0.773999989032745361 0.420000076293945312 1.42400002479553223
-0.726000010967254639 0.0540000200271606445 1.43000006675720215
-0.719999969005584717 0.0540000200271606445 1.43000006675720215
-0.761999964714050293 0.0659999847412109375 1.43000006675720215
-0.726000010967254639 0.0780000686645507812 1.43000006675720215
-0.719999969005584717 0.0780000686645507812 1.43000006675720215
-0.726000010967254639 0.101999998092651367 1.43000006675720215
-0.719999969005584717 0.101999998092651367 1.43000006675720215
0 0.108000040054321289 1.43000006675720215
0.0299999713897705078 0.108000040054321289 1.43000006675720215
0.0600000619888305664 0.108000040054321289 1.43000006675720215
0.0780000686645507812 0.108000040054321289 1.43000006675720215
0.101999998092651367 0.108000040054321289 1.43000006675720215
-0.0720000267028808594 0.11399996280670166 1.43000006675720215
-0.0479999780654907227 0.11399996280670166 1.43000006675720215
-0.0239999294281005859 0.11399996280670166 1.43000006675720215
0.14999997615814209 0.11399996280670166 1.43000006675720215
0.156000018119812012 0.11399996280670166 1.43000006675720215
0.180000066757202148 0.11399996280670166 1.43000006675720215
-0.161999940872192383 0.120000004768371582 1.43000006675720215
-0.14999997615814209 0.120000004768371582 1.43000006675720215
-0.120000004768371582 0.120000004768371582 1.43000006675720215
-0.0959999561309814453 0.120000004768371582 1.43000006675720215
-0.731999993324279785 0.126000046730041504 1.43000006675720215
-0.719999969005584717 0.126000046730041504 1.43000006675720215
-0.287999987602233887 0.126000046730041504 1.43000006675720215
-0.269999980926513672 0.126000046730041504 1.43000006675720215
-0.245999932289123535 0.126000046730041504 1.43000006675720215
-0.222000002861022949 0.126000046730041504 1.43000006675720215
-0.197999954223632812 0.126000046730041504 1.43000006675720215
-0.174000024795532227 0.126000046730041504 1.43000006675720215
-0.14999997615814209 0.126000046730041504 1.43000006675720215
-0.473999977111816406 0.138000011444091797 1.43000006675720215
-0.425999999046325684 0.138000011444091797 1.43000006675720215
-0.419999957084655762 0.138000011444091797 1.43000006675720215
-0.396000027656555176 0.138000011444091797 1.43000006675720215
-0.371999979019165039 0.138000011444091797 1.43000006675720215
-0.731999993324279785 0.180000066757202148 1.43000006675720215
-0.768000006675720215 0.192000031471252441 1.43000006675720215
-0.719999969005584717 0.192000031471252441 1.43000006675720215
-0.779999971389770508 0.198000073432922363 1.43000006675720215
-0.731999993324279785 0.203999996185302734 1.43000006675720215
-0.719999969005584717 0.203999996185302734 1.43000006675720215
-0.804000020027160645 0.210000038146972656 1.43000006675720215
-0.761999964714050293 0.228000044822692871 1.43000006675720215
-0.75 0.258000016212463379 1.43000006675720215
-0.779999971389770508 0.264000058174133301 1.43000006675720215
-0.773999989032745361 0.264000058174133301 1.43000006675720215
-0.737999975681304932 0.276000022888183594 1.43000006675720215
-0.755999982357025146 0.30000007152557373 1.43000006675720215
-0.78600001335144043 0.312000036239624023 1.43000006675720215
-0.768000006675720215 0.335999965667724609 1.43000006675720215
-0.75 0.335999965667724609 1.43000006675720215
-0.78600001335144043 0.342000007629394531 1.43000006675720215
-0.804000020027160645 0.348000049591064453 1.43000006675720215
-0.815999984741210938 0.353999972343444824 1.43000006675720215
-0.75 0.353999972343444824 1.43000006675720215
-0.828000009059906006 0.360000014305114746 1.43000006675720215
-0.755999982357025146 0.371999979019165039 1.43000006675720215
-0.761999964714050293 0.378000020980834961 1.43000006675720215
-0.78600001335144043 0.384000062942504883 1.43000006675720215
-0.810000002384185791 0.396000027656555176 1.43000006675720215
-0.797999978065490723 0.414000034332275391 1.43000006675720215
-0.773999989032745361 0.414000034332275391 1.43000006675720215
-0.815999984741210938 0.420000076293945312 1.43000006675720215
-0.839999973773956299 0.425999999046325684 1.43000006675720215
-0.768000006675720215 0.425999999046325684 1.43000006675720215
-0.851999998092651367 0.432000041007995605 1.43000006675720215
-0.779999971389770508 0.45000004768371582 1.43000006675720215
-0.773999989032745361 0.45000004768371582 1.43000006675720215
-0.719999969005584717 0.455999970436096191 1.43000006675720215
-0.695999979972839355 0.455999970436096191 1.43000006675720215
-0.671999990940093994 0.455999970436096191 1.43000006675720215
-0.75 0.462000012397766113 1.43000006675720215
-0.779999971389770508 0.0720000267028808594 1.43599998950958252
-0.210000038146972656 0.120000004768371582 1.43599998950958252
-0.197999954223632812 0.120000004768371582 1.43599998950958252
-0.755999982357025146 0.156000018119812012 1.43599998950958252
-0.779999971389770508 0.162000060081481934 1.43599998950958252
-0.719999969005584717 0.264000058174133301 1.43599998950958252
-0.719999969005584717 0.276000022888183594 1.43599998950958252
-0.75 0.414000034332275391 1.43599998950958252
-0.75 0.425999999046325684 1.43599998950958252
-0.71399998664855957 0.0479999780654907227 1.44200003147125244
-0.276000022888183594 0.120000004768371582 1.44200003147125244
-0.269999980926513672 0.120000004768371582 1.44200003147125244
-0.245999932289123535 0.120000004768371582 1.44200003147125244
-0.348000049591064453 0.131999969482421875 1.44200003147125244
-0.491999983787536621 0.156000018119812012 1.44200003147125244
-0.791999995708465576 0.203999996185302734 1.44200003147125244
-0.810000002384185791 0.276000022888183594 1.44200003147125244
-0.719999969005584717 0.335999965667724609 1.44200003147125244
-0.719999969005584717 0.353999972343444824 1.44200003147125244
-0.695999979972839355 0.0540000200271606445 1.44799995422363281
-0.695999979972839355 0.0780000686645507812 1.44799995422363281
-0.695999979972839355 0.101999998092651367 1.44799995422363281
-0.71399998664855957 0.167999982833862305 1.44799995422363281
-0.731999993324279785 0.174000024795532227 1.44799995422363281
-0.737999975681304932 0.324000000953674316 1.44799995422363281
-0.689999997615814209 0.444000005722045898 1.44799995422363281
-0.695999979972839355 0.0420000553131103516 1.45399999618530273
-0.719999969005584717 0.0479999780654907227 1.45399999618530273
-0.702000021934509277 0.0540000200271606445 1.45399999618530273
-0.695999979972839355 0.0540000200271606445 1.45399999618530273
-0.773999989032745361 0.0720000267028808594 1.45399999618530273
-0.702000021934509277 0.0780000686645507812 1.45399999618530273
-0.695999979972839355 0.0780000686645507812 1.45399999618530273
-0.702000021934509277 0.101999998092651367 1.45399999618530273
-0.695999979972839355 0.101999998092651367 1.45399999618530273
-0.0959999561309814453 0.101999998092651367 1.45399999618530273
-0.0720000267028808594 0.101999998092651367 1.45399999618530273
-0.0479999780654907227 0.101999998092651367 1.45399999618530273
-0.0239999294281005859 0.101999998092651367 1.45399999618530273
0 0.101999998092651367 1.45399999618530273
-0.161999940872192383 0.108000040054321289 1.45399999618530273
-0.14999997615814209 0.108000040054321289 1.45399999618530273
-0.120000004768371582 0.108000040054321289 1.45399999618530273
0.0479999780654907227 0.108000040054321289 1.45399999618530273
0.0540000200271606445 0.108000040054321289 1.45399999618530273
0.0780000686645507812 0.108000040054321289 1.45399999618530273
-0.269999980926513672 0.11399996280670166 1.45399999618530273
-0.245999932289123535 0.11399996280670166 1.45399999618530273
-0.222000002861022949 0.11399996280670166 1.45399999618530273
-0.197999954223632812 0.11399996280670166 1.45399999618530273
0.101999998092651367 0.11399996280670166 1.45399999618530273
-0.294000029563903809 0.120000004768371582 1.45399999618530273
-0.702000021934509277 0.126000046730041504 1.45399999618530273
-0.695999979972839355 0.126000046730041504 1.45399999618530273
-0.467999935150146484 0.126000046730041504 1.45399999618530273
-0.425999999046325684 0.126000046730041504 1.45399999618530273
-0.419999957084655762 0.126000046730041504 1.45399999618530273
-0.396000027656555176 0.126000046730041504 1.45399999618530273
-0.371999979019165039 0.126000046730041504 1.45399999618530273
-0.348000049591064453 0.126000046730041504 1.45399999618530273
-0.480000019073486328 0.138000011444091797 1.45399999618530273
-0.731999993324279785 0.144000053405761719 1.45399999618530273
-0.71399998664855957 0.167999982833862305 1.45399999618530273
-0.726000010967254639 0.174000024795532227 1.45399999618530273
-0.695999979972839355 0.174000024795532227 1.45399999618530273
-0.744000017642974854 0.180000066757202148 1.45399999618530273
-0.708000004291534424 0.180000066757202148 1.45399999618530273
-0.695999979972839355 0.180000066757202148 1.45399999618530273
-0.768000006675720215 0.192000031471252441 1.45399999618530273
-0.708000004291534424 0.203999996185302734 1.45399999618530273
-0.731999993324279785 0.215999960899353027 1.45399999618530273
-0.719999969005584717 0.246000051498413086 1.45399999618530273
-0.744000017642974854 0.251999974250793457 1.45399999618530273
-0.719999969005584717 0.251999974250793457 1.45399999618530273
-0.768000006675720215 0.258000016212463379 1.45399999618530273
-0.695999979972839355 0.258000016212463379 1.45399999618530273
-0.779999971389770508 0.264000058174133301 1.45399999618530273
-0.71399998664855957 0.276000022888183594 1.45399999618530273
-0.731999993324279785 0.287999987602233887 1.45399999618530273
-0.744000017642974854 0.324000000953674316 1.45399999618530273
-0.719999969005584717 0.324000000953674316 1.45399999618530273
-0.761999964714050293 0.330000042915344238 1.45399999618530273
-0.75 0.330000042915344238 1.45399999618530273
-0.719999969005584717 0.330000042915344238 1.45399999618530273
-0.78600001335144043 0.342000007629394531 1.45399999618530273
-0.804000020027160645 0.353999972343444824 1.45399999618530273
-0.719999969005584717 0.353999972343444824 1.45399999618530273
-0.726000010967254639 0.360000014305114746 1.45399999618530273
-0.755999982357025146 0.371999979019165039 1.45399999618530273
-0.773999989032745361 0.402000069618225098 1.45399999618530273
-0.75 0.402000069618225098 1.45399999618530273
-0.78600001335144043 0.407999992370605469 1.45399999618530273
-0.804000020027160645 0.414000034332275391 1.45399999618530273
-0.828000009059906006 0.425999999046325684 1.45399999618530273
-0.737999975681304932 0.425999999046325684 1.45399999618530273
-0.755999982357025146 0.444000005722045898 1.45399999618530273
-0.702000021934509277 0.444000005722045898 1.45399999618530273
-0.695999979972839355 0.444000005722045898 1.45399999618530273
-0.671999990940093994 0.444000005722045898 1.45399999618530273
-0.755999982357025146 0.45000004768371582 1.45399999618530273
-0.75 0.45000004768371582 1.45399999618530273
-0.719999969005584717 0.45000004768371582 1.45399999618530273
-0.684000015258789062 0.45000004768371582 1.45399999618530273
-0.671999990940093994 0.45000004768371582 1.45399999618530273
-0.726000010967254639 0.0479999780654907227 1.46000003814697266
-0.744000017642974854 0.0540000200271606445 1.46000003814697266
-0.396000027656555176 0.120000004768371582 1.46000003814697266
-0.371999979019165039 0.120000004768371582 1.46000003814697266
-0.348000049591064453 0.120000004768371582 1.46000003814697266
-0.731999993324279785 0.246000051498413086 1.46000003814697266
-0.695999979972839355 0.246000051498413086 1.46000003814697266
-0.761999964714050293 0.396000027656555176 1.46000003814697266
-0.75 0.396000027656555176 1.46000003814697266
-0.719999969005584717 0.402000069618225098 1.46000003814697266
-0.821999967098236084 0.425999999046325684 1.46000003814697266
-0.671999990940093994 0.0479999780654907227 1.46600008010864258
-0.671999990940093994 0.0540000200271606445 1.46600008010864258
-0.671999990940093994 0.0780000686645507812 1.46600008010864258
-0.671999990940093994 0.108000040054321289 1.46600008010864258
-0.467999935150146484 0.120000004768371582 1.46600008010864258
-0.437999963760375977 0.120000004768371582 1.46600008010864258
-0.419999957084655762 0.120000004768371582 1.46600008010864258
-0.671999990940093994 0.126000046730041504 1.46600008010864258
-0.695999979972839355 0.324000000953674316 1.46600008010864258
-0.695999979972839355 0.330000042915344238 1.46600008010864258
-0.719999969005584717 0.396000027656555176 1.46600008010864258
-0.161999940872192383 0.0959999561309814453 1.47200000286102295
-0.14999997615814209 0.0959999561309814453 1.47200000286102295
-0.324000000953674316 0.11399996280670166 1.47200000286102295
-0.671999990940093994 0.167999982833862305 1.47200000286102295
-0.671999990940093994 0.180000066757202148 1.47200000286102295
-0.677999973297119141 0.0299999713897705078 1.47799992561340332
-0.671999990940093994 0.0299999713897705078 1.47799992561340332
-0.702000021934509277 0.0360000133514404297 1.47799992561340332
-0.726000010967254639 0.0479999780654907227 1.47799992561340332
-0.671999990940093994 0.0540000200271606445 1.47799992561340332
-0.671999990940093994 0.0780000686645507812 1.47799992561340332
-0.156000018119812012 0.0900000333786010742 1.47799992561340332
-0.179999947547912598 0.0959999561309814453 1.47799992561340332
-0.14999997615814209 0.0959999561309814453 1.47799992561340332
-0.671999990940093994 0.101999998092651367 1.47799992561340332
-0.26399993896484375 0.101999998092651367 1.47799992561340332
-0.245999932289123535 0.101999998092651367 1.47799992561340332
-0.222000002861022949 0.101999998092651367 1.47799992561340332
-0.197999954223632812 0.101999998092651367 1.47799992561340332
-0.174000024795532227 0.101999998092651367 1.47799992561340332
-0.0659999847412109375 0.101999998092651367 1.47799992561340332
-0.0360000133514404297 0.101999998092651367 1.47799992561340332
-0.0239999294281005859 0.101999998092651367 1.47799992561340332
-0.330000042915344238 0.108000040054321289 1.47799992561340332
-0.324000000953674316 0.108000040054321289 1.47799992561340332
-0.29999995231628418 0.108000040054321289 1.47799992561340332
0.00600004196166992188 0.108000040054321289 1.47799992561340332
-0.462000012397766113 0.11399996280670166 1.47799992561340332
-0.432000041007995605 0.11399996280670166 1.47799992561340332
-0.419999957084655762 0.11399996280670166 1.47799992561340332
-0.396000027656555176 0.11399996280670166 1.47799992561340332
-0.371999979019165039 0.11399996280670166 1.47799992561340332
-0.671999990940093994 0.126000046730041504 1.47799992561340332
-0.708000004291534424 0.131999969482421875 1.47799992561340332
-0.689999997615814209 0.131999969482421875 1.47799992561340332
-0.689999997615814209 0.156000018119812012 1.47799992561340332
-0.671999990940093994 0.156000018119812012 1.47799992561340332
-0.708000004291534424 0.162000060081481934 1.47799992561340332
-0.744000017642974854 0.180000066757202148 1.47799992561340332
-0.677999973297119141 0.180000066757202148 1.47799992561340332
-0.671999990940093994 0.180000066757202148 1.47799992561340332
-0.648000001907348633 0.192000031471252441 1.47799992561340332
-0.702000021934509277 0.203999996185302734 1.47799992561340332
-0.702000021934509277 0.233999967575073242 1.47799992561340332
-0.695999979972839355 0.233999967575073242 1.47799992561340332
-0.671999990940093994 0.240000009536743164 1.47799992561340332
-0.737999975681304932 0.246000051498413086 1.47799992561340332
-0.75 0.251999974250793457 1.47799992561340332
-0.684000015258789062 0.251999974250793457 1.47799992561340332
-0.671999990940093994 0.251999974250793457 1.47799992561340332
-0.755999982357025146 0.258000016212463379 1.47799992561340332
-0.702000021934509277 0.276000022888183594 1.47799992561340332
-0.719999969005584717 0.312000036239624023 1.47799992561340332
-0.695999979972839355 0.312000036239624023 1.47799992561340332
-0.737999975681304932 0.317999958992004395 1.47799992561340332
-0.761999964714050293 0.330000042915344238 1.47799992561340332
-0.689999997615814209 0.330000042915344238 1.47799992561340332
-0.671999990940093994 0.330000042915344238 1.47799992561340332
-0.708000004291534424 0.353999972343444824 1.47799992561340332
-0.731999993324279785 0.360000014305114746 1.47799992561340332
-0.726000010967254639 0.384000062942504883 1.47799992561340332
-0.719999969005584717 0.384000062942504883 1.47799992561340332
-0.768000006675720215 0.396000027656555176 1.47799992561340332
-0.779999971389770508 0.402000069618225098 1.47799992561340332
-0.708000004291534424 0.402000069618225098 1.47799992561340332
-0.804000020027160645 0.420000076293945312 1.47799992561340332
-0.726000010967254639 0.425999999046325684 1.47799992561340332
-0.719999969005584717 0.425999999046325684 1.47799992561340332
-0.684000015258789062 0.432000041007995605 1.47799992561340332
-0.671999990940093994 0.432000041007995605 1.47799992561340332
-0.666000008583068848 0.0240000486373901367 1.48399996757507324
-0.233999967575073242 0.0959999561309814453 1.48399996757507324
-0.222000002861022949 0.0959999561309814453 1.48399996757507324
-0.671999990940093994 0.312000036239624023 1.48399996757507324
-0.78600001335144043 0.348000049591064453 1.48399996757507324
-0.695999979972839355 0.389999985694885254 1.48399996757507324
-0.648000001907348633 0.0240000486373901367 1.49000000953674316
-0.648000001907348633 0.0299999713897705078 1.49000000953674316
-0.648000001907348633 0.0540000200271606445 1.49000000953674316
-0.648000001907348633 0.0780000686645507812 1.49000000953674316
-0.276000022888183594 0.0959999561309814453 1.49000000953674316
-0.269999980926513672 0.0959999561309814453 1.49000000953674316
-0.648000001907348633 0.101999998092651367 1.49000000953674316
-0.0839999914169311523 0.101999998092651367 1.49000000953674316
-0.648000001907348633 0.156000018119812012 1.49000000953674316
-0.695999979972839355 0.402000069618225098 1.49000000953674316
-0.317999958992004395 0.0959999561309814453 1.49600005149841309
-0.648000001907348633 0.126000046730041504 1.49600005149841309
-0.702000021934509277 0.198000073432922363 1.49600005149841309
-0.677999973297119141 0.222000002861022949 1.49600005149841309
-0.671999990940093994 0.222000002861022949 1.49600005149841309
-0.648000001907348633 0.233999967575073242 1.49600005149841309
-0.648000001907348633 0.0180000066757202148 1.50199997425079346
-0.677999973297119141 0.0240000486373901367 1.50199997425079346
-0.689999997615814209 0.0299999713897705078 1.50199997425079346
-0.642000019550323486 0.0299999713897705078 1.50199997425079346
-0.642000019550323486 0.0540000200271606445 1.50199997425079346
-0.642000019550323486 0.0780000686645507812 1.50199997425079346
-0.167999982833862305 0.0900000333786010742 1.50199997425079346
-0.360000014305114746 0.0959999561309814453 1.50199997425079346
-0.348000049591064453 0.0959999561309814453 1.50199997425079346
-0.324000000953674316 0.0959999561309814453 1.50199997425079346
-0.29999995231628418 0.0959999561309814453 1.50199997425079346
-0.269999980926513672 0.0959999561309814453 1.50199997425079346
-0.18599998950958252 0.0959999561309814453 1.50199997425079346
-0.143999934196472168 0.0959999561309814453 1.50199997425079346
-0.642000019550323486 0.101999998092651367 1.50199997425079346
-0.467999935150146484 0.101999998092651367 1.50199997425079346
-0.444000005722045898 0.101999998092651367 1.50199997425079346
-0.419999957084655762 0.101999998092651367 1.50199997425079346
-0.396000027656555176 0.101999998092651367 1.50199997425079346
-0.371999979019165039 0.101999998092651367 1.50199997425079346
-0.348000049591064453 0.101999998092651367 1.50199997425079346
-0.0900000333786010742 0.101999998092651367 1.50199997425079346
-0.648000001907348633 0.126000046730041504 1.50199997425079346
-0.666000008583068848 0.138000011444091797 1.50199997425079346
-0.648000001907348633 0.156000018119812012 1.50199997425079346
-0.648000001907348633 0.180000066757202148 1.50199997425079346
-0.653999984264373779 0.18599998950958252 1.50199997425079346
-0.677999973297119141 0.222000002861022949 1.50199997425079346
-0.671999990940093994 0.222000002861022949 1.50199997425079346
-0.648000001907348633 0.222000002861022949 1.50199997425079346
-0.695999979972839355 0.228000044822692871 1.50199997425079346
-0.659999966621398926 0.228000044822692871 1.50199997425079346
-0.648000001907348633 0.228000044822692871 1.50199997425079346
-0.731999993324279785 0.246000051498413086 1.50199997425079346
-0.731999993324279785 0.251999974250793457 1.50199997425079346
-0.653999984264373779 0.251999974250793457 1.50199997425079346
-0.648000001907348633 0.251999974250793457 1.50199997425079346
-0.677999973297119141 0.264000058174133301 1.50199997425079346
-0.708000004291534424 0.276000022888183594 1.50199997425079346
-0.695999979972839355 0.30000007152557373 1.50199997425079346
-0.671999990940093994 0.30000007152557373 1.50199997425079346
-0.708000004291534424 0.305999994277954102 1.50199997425079346
-0.648000001907348633 0.305999994277954102 1.50199997425079346
-0.726000010967254639 0.312000036239624023 1.50199997425079346
-0.659999966621398926 0.330000042915344238 1.50199997425079346
-0.689999997615814209 0.348000049591064453 1.50199997425079346
-0.71399998664855957 0.353999972343444824 1.50199997425079346
-0.726000010967254639 0.378000020980834961 1.50199997425079346
-0.719999969005584717 0.378000020980834961 1.50199997425079346
-0.695999979972839355 0.378000020980834961 1.50199997425079346
-0.768000006675720215 0.396000027656555176 1.50199997425079346
-0.689999997615814209 0.402000069618225098 1.50199997425079346
-0.773999989032745361 0.407999992370605469 1.50199997425079346
-0.702000021934509277 0.414000034332275391 1.50199997425079346
-0.653999984264373779 0.420000076293945312 1.50199997425079346
-0.648000001907348633 0.420000076293945312 1.50199997425079346
-0.708000004291534424 0.425999999046325684 1.50199997425079346
-0.695999979972839355 0.425999999046325684 1.50199997425079346
-0.671999990940093994 0.425999999046325684 1.50199997425079346
-0.624000012874603271 0.0240000486373901367 1.50800001621246338
-0.624000012874603271 0.0299999713897705078 1.50800001621246338
-0.624000012874603271 0.0540000200271606445 1.50800001621246338
-0.624000012874603271 0.0780000686645507812 1.50800001621246338
-0.407999992370605469 0.0959999561309814453 1.50800001621246338
-0.396000027656555176 0.0959999561309814453 1.50800001621246338
-0.624000012874603271 0.101999998092651367 1.50800001621246338
-0.624000012874603271 0.126000046730041504 1.50800001621246338
-0.702000021934509277 0.156000018119812012 1.50800001621246338
-0.684000015258789062 0.192000031471252441 1.50800001621246338
-0.702000021934509277 0.228000044822692871 1.50800001621246338
-0.677999973297119141 0.294000029563903809 1.50800001621246338
-0.671999990940093994 0.294000029563903809 1.50800001621246338
-0.71399998664855957 0.348000049591064453 1.50800001621246338
-0.695999979972839355 0.371999979019165039 1.50800001621246338
-0.671999990940093994 0.371999979019165039 1.50800001621246338
-0.671999990940093994 0.378000020980834961 1.50800001621246338
-0.161999940872192383 -0.0239999294281005859 1.5140000581741333
-0.14999997615814209 -0.0239999294281005859 1.5140000581741333
-0.120000004768371582 -0.0239999294281005859 1.5140000581741333
-0.167999982833862305 0 1.5140000581741333
-0.653999984264373779 0.0180000066757202148 1.5140000581741333
-0.462000012397766113 0.0959999561309814453 1.5140000581741333
-0.444000005722045898 0.0959999561309814453 1.5140000581741333
-0.131999969482421875 0.101999998092651367 1.5140000581741333
-0.624000012874603271 0.156000018119812012 1.5140000581741333
-0.624000012874603271 0.180000066757202148 1.5140000581741333
-0.624000012874603271 0.203999996185302734 1.5140000581741333
-0.648000001907348633 0.294000029563903809 1.5140000581741333
-0.0900000333786010742 -0.0360000133514404297 1.51999998092651367
-0.0720000267028808594 -0.0360000133514404297 1.51999998092651367
-0.0479999780654907227 -0.0360000133514404297 1.51999998092651367
-0.14999997615814209 -0.0299999713897705078 1.51999998092651367
-0.120000004768371582 -0.0299999713897705078 1.51999998092651367
-0.0959999561309814453 -0.0239999294281005859 1.51999998092651367
-0.0720000267028808594 -0.0239999294281005859 1.51999998092651367
-0.14999997615814209 0 1.51999998092651367
-0.120000004768371582 0 1.51999998092651367
-0.0900000333786010742 0 1.51999998092651367
-0.161999940872192383 0.0360000133514404297 1.51999998092651367
-0.120000004768371582 0.101999998092651367 1.51999998092651367
-0.624000012874603271 0.228000044822692871 1.51999998092651367
-0.648000001907348633 0.330000042915344238 1.51999998092651367
-0.0479999780654907227 -0.0419999361038208008 1.52600002288818359
-0.0239999294281005859 -0.0419999361038208008 1.52600002288818359
0 -0.0419999361038208008 1.52600002288818359
-0.11399996280670166 -0.0360000133514404297 1.52600002288818359
-0.0959999561309814453 -0.0360000133514404297 1.52600002288818359
-0.0720000267028808594 -0.0360000133514404297 1.52600002288818359
-0.14999997615814209 -0.0299999713897705078 1.52600002288818359
-0.167999982833862305 -0.0239999294281005859 1.52600002288818359
-0.108000040054321289 -0.0239999294281005859 1.52600002288818359
-0.0959999561309814453 -0.0239999294281005859 1.52600002288818359
-0.0720000267028808594 -0.0239999294281005859 1.52600002288818359
-0.0479999780654907227 -0.0239999294281005859 1.52600002288818359
-0.0239999294281005859 -0.0239999294281005859 1.52600002288818359
0 -0.0239999294281005859 1.52600002288818359
-0.131999969482421875 -0.011999964714050293 1.52600002288818359
-0.174000024795532227 0 1.52600002288818359
-0.14999997615814209 0 1.52600002288818359
-0.120000004768371582 0 1.52600002288818359
-0.0959999561309814453 0 1.52600002288818359
-0.0720000267028808594 0 1.52600002288818359
-0.0479999780654907227 0 1.52600002288818359
-0.653999984264373779 0.0180000066757202148 1.52600002288818359
-0.629999995231628418 0.0180000066757202148 1.52600002288818359
-0.624000012874603271 0.0240000486373901367 1.52600002288818359
-0.624000012874603271 0.0299999713897705078 1.52600002288818359
-0.161999940872192383 0.0299999713897705078 1.52600002288818359
-0.14999997615814209 0.0299999713897705078 1.52600002288818359
-0.120000004768371582 0.0299999713897705078 1.52600002288818359
-0.0959999561309814453 0.0299999713897705078 1.52600002288818359
-0.61799997091293335 0.0540000200271606445 1.52600002288818359
-0.161999940872192383 0.0540000200271606445 1.52600002288818359
-0.143999934196472168 0.0540000200271606445 1.52600002288818359
-0.611999988555908203 0.0780000686645507812 1.52600002288818359
-0.383999943733215332 0.0839999914169311523 1.52600002288818359
-0.365999937057495117 0.0839999914169311523 1.52600002288818359
-0.45000004768371582 0.0900000333786010742 1.52600002288818359
-0.444000005722045898 0.0900000333786010742 1.52600002288818359
-0.419999957084655762 0.0900000333786010742 1.52600002288818359
-0.281999945640563965 0.0900000333786010742 1.52600002288818359
-0.269999980926513672 0.0900000333786010742 1.52600002288818359
-0.167999982833862305 0.0900000333786010742 1.52600002288818359
-0.210000038146972656 0.0959999561309814453 1.52600002288818359
-0.197999954223632812 0.0959999561309814453 1.52600002288818359
-0.14999997615814209 0.0959999561309814453 1.52600002288818359
-0.611999988555908203 0.101999998092651367 1.52600002288818359
-0.599999964237213135 0.101999998092651367 1.52600002288818359
-0.131999969482421875 0.101999998092651367 1.52600002288818359
-0.120000004768371582 0.101999998092651367 1.52600002288818359
-0.61799997091293335 0.126000046730041504 1.52600002288818359
-0.599999964237213135 0.126000046730041504 1.52600002288818359
-0.61799997091293335 0.156000018119812012 1.52600002288818359
-0.61799997091293335 0.180000066757202148 1.52600002288818359
-0.671999990940093994 0.198000073432922363 1.52600002288818359
-0.61799997091293335 0.203999996185302734 1.52600002288818359
-0.695999979972839355 0.228000044822692871 1.52600002288818359
-0.624000012874603271 0.228000044822692871 1.52600002288818359
-0.629999995231628418 0.240000009536743164 1.52600002288818359
-0.635999977588653564 0.251999974250793457 1.52600002288818359
-0.624000012874603271 0.251999974250793457 1.52600002288818359
-0.666000008583068848 0.258000016212463379 1.52600002288818359
-0.671999990940093994 0.287999987602233887 1.52600002288818359
-0.648000001907348633 0.287999987602233887 1.52600002288818359
-0.624000012874603271 0.287999987602233887 1.52600002288818359
-0.689999997615814209 0.294000029563903809 1.52600002288818359
-0.702000021934509277 0.30000007152557373 1.52600002288818359
-0.635999977588653564 0.30000007152557373 1.52600002288818359
-0.624000012874603271 0.30000007152557373 1.52600002288818359
-0.648000001907348633 0.330000042915344238 1.52600002288818359
-0.666000008583068848 0.335999965667724609 1.52600002288818359
-0.689999997615814209 0.353999972343444824 1.52600002288818359
-0.659999966621398926 0.360000014305114746 1.52600002288818359
-0.648000001907348633 0.360000014305114746 1.52600002288818359
-0.71399998664855957 0.366000056266784668 1.52600002288818359
-0.731999993324279785 0.378000020980834961 1.52600002288818359
-0.653999984264373779 0.378000020980834961 1.52600002288818359
-0.648000001907348633 0.378000020980834961 1.52600002288818359
-0.677999973297119141 0.402000069618225098 1.52600002288818359
-0.671999990940093994 0.402000069618225098 1.52600002288818359
-0.648000001907348633 0.407999992370605469 1.52600002288818359
0.0600000619888305664 -0.0540000200271606445 1.53200006484985352
0.0900000333786010742 -0.0540000200271606445 1.53200006484985352
0.0299999713897705078 -0.0479999780654907227 1.53200006484985352
0.0540000200271606445 -0.0479999780654907227 1.53200006484985352
0.0780000686645507812 -0.0479999780654907227 1.53200006484985352
-0.156000018119812012 -0.0299999713897705078 1.53200006484985352
0.0299999713897705078 -0.0239999294281005859 1.53200006484985352
0.0540000200271606445 -0.0239999294281005859 1.53200006484985352
-0.0239999294281005859 0 1.53200006484985352
0 0 1.53200006484985352
-0.677999973297119141 0.0240000486373901367 1.53200006484985352
-0.0720000267028808594 0.0299999713897705078 1.53200006484985352
-0.0479999780654907227 0.0299999713897705078 1.53200006484985352
-0.120000004768371582 0.0540000200271606445 1.53200006484985352
-0.0959999561309814453 0.0540000200271606445 1.53200006484985352
-0.120000004768371582 0.0780000686645507812 1.53200006484985352
-0.348000049591064453 0.0839999914169311523 1.53200006484985352
-0.599999964237213135 0.0959999561309814453 1.53200006484985352
-0.228000044822692871 0.0959999561309814453 1.53200006484985352
-0.0959999561309814453 0.101999998092651367 1.53200006484985352
-0.599999964237213135 0.156000018119812012 1.53200006484985352
-0.599999964237213135 0.180000066757202148 1.53200006484985352
-0.671999990940093994 0.210000038146972656 1.53200006484985352
-0.695999979972839355 0.30000007152557373 1.53200006484985352
-0.689999997615814209 0.342000007629394531 1.53200006484985352
0.126000046730041504 -0.0599999427795410156 1.53799998760223389
0.156000018119812012 -0.0599999427795410156 1.53799998760223389
0.0420000553131103516 -0.0540000200271606445 1.53799998760223389
0.101999998092651367 -0.0540000200271606445 1.53799998760223389
0.101999998092651367 -0.0479999780654907227 1.53799998760223389
0.126000046730041504 -0.0479999780654907227 1.53799998760223389
0.162000060081481934 -0.0479999780654907227 1.53799998760223389
0.0780000686645507812 -0.0239999294281005859 1.53799998760223389
0.101999998092651367 -0.0239999294281005859 1.53799998760223389
0.0299999713897705078 0 1.53799998760223389
0.0540000200271606445 0 1.53799998760223389
-0.629999995231628418 0.0299999713897705078 1.53799998760223389
-0.0239999294281005859 0.0299999713897705078 1.53799998760223389
-0.0959999561309814453 0.0780000686645507812 1.53799998760223389
-0.0720000267028808594 0.0780000686645507812 1.53799998760223389
-0.0720000267028808594 0.108000040054321289 1.53799998760223389
-0.599999964237213135 0.203999996185302734 1.53799998760223389
-0.677999973297119141 0.215999960899353027 1.53799998760223389
-0.599999964237213135 0.228000044822692871 1.53799998760223389
-0.599999964237213135 0.251999974250793457 1.53799998760223389
-0.624000012874603271 0.360000014305114746 1.53799998760223389
0.240000009536743164 -0.0720000267028808594 1.54400002956390381
0.180000066757202148 -0.0659999847412109375 1.54400002956390381
0.203999996185302734 -0.0659999847412109375 1.54400002956390381
0.251999974250793457 -0.0659999847412109375 1.54400002956390381
0.276000022888183594 -0.0659999847412109375 1.54400002956390381
0.180000066757202148 -0.0479999780654907227 1.54400002956390381
0.203999996185302734 -0.0479999780654907227 1.54400002956390381
0.126000046730041504 -0.0239999294281005859 1.54400002956390381
0.156000018119812012 -0.0239999294281005859 1.54400002956390381
0.0780000686645507812 0 1.54400002956390381
0.101999998092651367 0 1.54400002956390381
0.126000046730041504 0 1.54400002956390381
0 0.0299999713897705078 1.54400002956390381
-0.0720000267028808594 0.0720000267028808594 1.54400002956390381
-0.0479999780654907227 0.0780000686645507812 1.54400002956390381
-0.0239999294281005859 0.0780000686645507812 1.54400002956390381
-0.305999994277954102 0.0900000333786010742 1.54400002956390381
-0.0479999780654907227 0.108000040054321289 1.54400002956390381
-0.599999964237213135 0.276000022888183594 1.54400002956390381
-0.599999964237213135 0.30000007152557373 1.54400002956390381
-0.624000012874603271 0.348000049591064453 1.54400002956390381
0.228000044822692871 -0.0479999780654907227 1.54999995231628418
0.251999974250793457 -0.0479999780654907227 1.54999995231628418
0.276000022888183594 -0.0479999780654907227 1.54999995231628418
0.180000066757202148 -0.0239999294281005859 1.54999995231628418
0.203999996185302734 -0.0239999294281005859 1.54999995231628418
0.228000044822692871 -0.0239999294281005859 1.54999995231628418
0.156000018119812012 0 1.54999995231628418
0.180000066757202148 0 1.54999995231628418
-0.629999995231628418 0.0600000619888305664 1.54999995231628418
0.0600000619888305664 0.0659999847412109375 1.54999995231628418
-0.0180000066757202148 0.0720000267028808594 1.54999995231628418
0 0.0720000267028808594 1.54999995231628418
0.0299999713897705078 0.0720000267028808594 1.54999995231628418
0 0.0780000686645507812 1.54999995231628418
0.0299999713897705078 0.0780000686645507812 1.54999995231628418
0.0540000200271606445 0.0780000686645507812 1.54999995231628418
-0.599999964237213135 0.330000042915344238 1.54999995231628418
-0.719999969005584717 0.378000020980834961 1.54999995231628418
0.215999960899353027 -0.0720000267028808594 1.5559999942779541
0.228000044822692871 -0.0720000267028808594 1.5559999942779541
0.251999974250793457 -0.0720000267028808594 1.5559999942779541
0.276000022888183594 -0.0720000267028808594 1.5559999942779541
0.156000018119812012 -0.0659999847412109375 1.5559999942779541
0.0959999561309814453 -0.0599999427795410156 1.5559999942779541
0.101999998092651367 -0.0599999427795410156 1.5559999942779541
0.0420000553131103516 -0.0540000200271606445 1.5559999942779541
0.0540000200271606445 -0.0540000200271606445 1.5559999942779541
-0.00600004196166992188 -0.0479999780654907227 1.5559999942779541
0 -0.0479999780654907227 1.5559999942779541
0.228000044822692871 -0.0479999780654907227 1.5559999942779541
0.251999974250793457 -0.0479999780654907227 1.5559999942779541
0.276000022888183594 -0.0479999780654907227 1.5559999942779541
-0.0540000200271606445 -0.0419999361038208008 1.5559999942779541
0.215999960899353027 -0.0419999361038208008 1.5559999942779541
-0.101999998092651367 -0.0360000133514404297 1.5559999942779541
-0.14999997615814209 -0.0299999713897705078 1.5559999942779541
0.198000073432922363 -0.0299999713897705078 1.5559999942779541
0.180000066757202148 -0.0239999294281005859 1.5559999942779541
0.203999996185302734 -0.0239999294281005859 1.5559999942779541
0.228000044822692871 -0.0239999294281005859 1.5559999942779541
0.251999974250793457 -0.0239999294281005859 1.5559999942779541
0.276000022888183594 -0.0239999294281005859 1.5559999942779541
0.174000024795532227 -0.0180000066757202148 1.5559999942779541
0.14999997615814209 -0.00600004196166992188 1.5559999942779541
0.138000011444091797 0 1.5559999942779541
0.156000018119812012 0 1.5559999942779541
0.180000066757202148 0 1.5559999942779541
0.203999996185302734 0 1.5559999942779541
0.228000044822692871 0 1.5559999942779541
0.251999974250793457 0 1.5559999942779541
0.120000004768371582 0.011999964714050293 1.5559999942779541
0.0839999914169311523 0.0180000066757202148 1.5559999942779541
0.0420000553131103516 0.0240000486373901367 1.5559999942779541
0.0540000200271606445 0.0240000486373901367 1.5559999942779541
0.00600004196166992188 0.0299999713897705078 1.5559999942779541
-0.0419999361038208008 0.0360000133514404297 1.5559999942779541
-0.0720000267028808594 0.0420000553131103516 1.5559999942779541
-0.0779999494552612305 0.0600000619888305664 1.5559999942779541
0.0720000267028808594 0.0600000619888305664 1.5559999942779541
0.0839999914169311523 0.0600000619888305664 1.5559999942779541
0.101999998092651367 0.0600000619888305664 1.5559999942779541
-0.0720000267028808594 0.0659999847412109375 1.5559999942779541
0.0240000486373901367 0.0659999847412109375 1.5559999942779541
0.0299999713897705078 0.0659999847412109375 1.5559999942779541
-0.0419999361038208008 0.0720000267028808594 1.5559999942779541
-0.0239999294281005859 0.0720000267028808594 1.5559999942779541
-0.011999964714050293 0.0780000686645507812 1.5559999942779541
0 0.0780000686645507812 1.5559999942779541
0.0299999713897705078 0.0780000686645507812 1.5559999942779541
0.0540000200271606445 0.0780000686645507812 1.5559999942779541
0.0780000686645507812 0.0780000686645507812 1.5559999942779541
0.101999998092651367 0.0780000686645507812 1.5559999942779541
-0.444000005722045898 0.0839999914169311523 1.5559999942779541
-0.371999979019165039 0.0839999914169311523 1.5559999942779541
-0.61799997091293335 0.0900000333786010742 1.5559999942779541
-0.462000012397766113 0.0900000333786010742 1.5559999942779541
-0.161999940872192383 0.0959999561309814453 1.5559999942779541
-0.611999988555908203 0.101999998092651367 1.5559999942779541
-0.599999964237213135 0.101999998092651367 1.5559999942779541
-0.0479999780654907227 0.101999998092651367 1.5559999942779541
-0.587999999523162842 0.126000046730041504 1.5559999942779541
-0.582000017166137695 0.162000060081481934 1.5559999942779541
-0.575999975204467773 0.18599998950958252 1.5559999942779541
-0.569999992847442627 0.198000073432922363 1.5559999942779541
-0.582000017166137695 0.203999996185302734 1.5559999942779541
-0.569999992847442627 0.210000038146972656 1.5559999942779541
-0.546000003814697266 0.210000038146972656 1.5559999942779541
-0.587999999523162842 0.228000044822692871 1.5559999942779541
-0.569999992847442627 0.228000044822692871 1.5559999942779541
-0.587999999523162842 0.251999974250793457 1.5559999942779541
-0.653999984264373779 0.276000022888183594 1.5559999942779541
-0.593999981880187988 0.276000022888183594 1.5559999942779541
-0.684000015258789062 0.30000007152557373 1.5559999942779541
-0.593999981880187988 0.30000007152557373 1.5559999942779541
-0.606000006198883057 0.312000036239624023 1.5559999942779541
-0.635999977588653564 0.324000000953674316 1.5559999942779541
-0.659999966621398926 0.330000042915344238 1.5559999942779541
-0.648000001907348633 0.330000042915344238 1.5559999942779541
-0.611999988555908203 0.330000042915344238 1.5559999942779541
-0.599999964237213135 0.330000042915344238 1.5559999942779541
-0.61799997091293335 0.353999972343444824 1.5559999942779541
-0.702000021934509277 0.366000056266784668 1.5559999942779541
-0.642000019550323486 0.396000027656555176 1.5559999942779541
-0.648000001907348633 0.402000069618225098 1.5559999942779541
0.14999997615814209 -0.0659999847412109375 1.56200003623962402
-0.0479999780654907227 -0.0419999361038208008 1.56200003623962402
-0.0959999561309814453 -0.0360000133514404297 1.56200003623962402
-0.161999940872192383 -0.0239999294281005859 1.56200003623962402
0.276000022888183594 0 1.56200003623962402
0.228000044822692871 0.0299999713897705078 1.56200003623962402
0.251999974250793457 0.0299999713897705078 1.56200003623962402
0.282000064849853516 0.0299999713897705078 1.56200003623962402
0.18599998950958252 0.0479999780654907227 1.56200003623962402
0.126000046730041504 0.0540000200271606445 1.56200003623962402
0.156000018119812012 0.0540000200271606445 1.56200003623962402
0.180000066757202148 0.0540000200271606445 1.56200003623962402
0.203999996185302734 0.0540000200271606445 1.56200003623962402
0.126000046730041504 0.0780000686645507812 1.56200003623962402
-0.389999985694885254 0.0839999914169311523 1.56200003623962402
-0.0239999294281005859 0.101999998092651367 1.56200003623962402
-0.569999992847442627 0.251999974250793457 1.56200003623962402
-0.677999973297119141 0.294000029563903809 1.56200003623962402
-0.677999973297119141 0.348000049591064453 1.56200003623962402
0.264000058174133301 -0.0779999494552612305 1.56799995899200439
0.276000022888183594 -0.0779999494552612305 1.56799995899200439
0.215999960899353027 0.0299999713897705078 1.56799995899200439
-0.161999940872192383 0.0420000553131103516 1.56799995899200439
0.174000024795532227 0.0479999780654907227 1.56799995899200439
0.228000044822692871 0.0540000200271606445 1.56799995899200439
0.251999974250793457 0.0540000200271606445 1.56799995899200439
0.276000022888183594 0.0540000200271606445 1.56799995899200439
0.156000018119812012 0.0780000686645507812 1.56799995899200439
0.203999996185302734 0.0780000686645507812 1.56799995899200439
0.240000009536743164 0.0780000686645507812 1.56799995899200439
-0.407999992370605469 0.0839999914169311523 1.56799995899200439
0.18599998950958252 0.131999969482421875 1.56799995899200439
-0.569999992847442627 0.276000022888183594 1.56799995899200439
0.0299999713897705078 -0.0479999780654907227 1.57400000095367432
0.198000073432922363 0.0780000686645507812 1.57400000095367432
0.251999974250793457 0.0780000686645507812 1.57400000095367432
0.276000022888183594 0.0780000686645507812 1.57400000095367432
0.246000051498413086 0.101999998092651367 1.57400000095367432
0.131999969482421875 0.126000046730041504 1.57400000095367432
0.156000018119812012 0.126000046730041504 1.57400000095367432
-0.689999997615814209 0.353999972343444824 1.57400000095367432
0.276000022888183594 -0.0779999494552612305 1.58000004291534424
0.228000044822692871 -0.0720000267028808594 1.58000004291534424
0.126000046730041504 -0.0599999427795410156 1.58000004291534424
0.0720000267028808594 -0.0540000200271606445 1.58000004291534424
0.294000029563903809 -0.0419999361038208008 1.58000004291534424
0.162000060081481934 0.011999964714050293 1.58000004291534424
0.180000066757202148 0.011999964714050293 1.58000004291534424
0.11399996280670166 0.0180000066757202148 1.58000004291534424
0.0479999780654907227 0.0240000486373901367 1.58000004291534424
0.0540000200271606445 0.0240000486373901367 1.58000004291534424
-0.0180000066757202148 0.0299999713897705078 1.58000004291534424
0 0.0299999713897705078 1.58000004291534424
0.210000038146972656 0.0299999713897705078 1.58000004291534424
-0.0479999780654907227 0.0360000133514404297 1.58000004291534424
0.198000073432922363 0.0420000553131103516 1.58000004291534424
0.162000060081481934 0.0479999780654907227 1.58000004291534424
0.11399996280670166 0.0540000200271606445 1.58000004291534424
0.0600000619888305664 0.0600000619888305664 1.58000004291534424
0.011999964714050293 0.0659999847412109375 1.58000004291534424
0.269999980926513672 0.0659999847412109375 1.58000004291534424
0.287999987602233887 0.0659999847412109375 1.58000004291534424
-0.0720000267028808594 0.0720000267028808594 1.58000004291534424
-0.0299999713897705078 0.0720000267028808594 1.58000004291534424
-0.0239999294281005859 0.0720000267028808594 1.58000004291534424
0.156000018119812012 0.0780000686645507812 1.58000004291534424
0.192000031471252441 0.0780000686645507812 1.58000004291534424
0.215999960899353027 0.0780000686645507812 1.58000004291534424
0.228000044822692871 0.0780000686645507812 1.58000004291534424
0.251999974250793457 0.0780000686645507812 1.58000004291534424
0.276000022888183594 0.0780000686645507812 1.58000004291534424
0.108000040054321289 0.0839999914169311523 1.58000004291534424
0.126000046730041504 0.0839999914169311523 1.58000004291534424
0.0540000200271606445 0.0900000333786010742 1.58000004291534424
0.0180000066757202148 0.0959999561309814453 1.58000004291534424
0.0299999713897705078 0.0959999561309814453 1.58000004291534424
0.228000044822692871 0.101999998092651367 1.58000004291534424
0.251999974250793457 0.101999998092651367 1.58000004291534424
0.276000022888183594 0.101999998092651367 1.58000004291534424
-0.0479999780654907227 0.108000040054321289 1.58000004291534424
0.192000031471252441 0.11399996280670166 1.58000004291534424
0.203999996185302734 0.11399996280670166 1.58000004291534424
0.162000060081481934 0.120000004768371582 1.58000004291534424
0.126000046730041504 0.126000046730041504 1.58000004291534424
0.156000018119812012 0.126000046730041504 1.58000004291534424
0.180000066757202148 0.126000046730041504 1.58000004291534424
0.203999996185302734 0.126000046730041504 1.58000004291534424
0.228000044822692871 0.126000046730041504 1.58000004291534424
0.251999974250793457 0.126000046730041504 1.58000004291534424
-0.599999964237213135 0.162000060081481934 1.58000004291534424
-0.575999975204467773 0.198000073432922363 1.58000004291534424
-0.569999992847442627 0.210000038146972656 1.58000004291534424
-0.659999966621398926 0.276000022888183594 1.58000004291534424
-0.659999966621398926 0.335999965667724609 1.58000004291534424
-0.689999997615814209 0.353999972343444824 1.58000004291534424
0.0900000333786010742 0.0180000066757202148 1.58599996566772461
0.30000007152557373 0.0360000133514404297 1.58599996566772461
0.30000007152557373 0.0540000200271606445 1.58599996566772461
0.30000007152557373 0.0780000686645507812 1.58599996566772461
-0.0239999294281005859 0.101999998092651367 1.58599996566772461
