ply
format ascii 1.0
element vertex 782
property float x
property float y
property float z
end_header
0.371999979019165039 0.0540000200271606445 1.68799996376037598
0.371999979019165039 0.126000046730041504 1.68799996376037598
0.371999979019165039 0.174000024795532227 1.68799996376037598
0.233999967575073242 0.264000058174133301 1.68799996376037598
-0.731999993324279785 0.720000028610229492 1.68799996376037598
-0.653999984264373779 0.773999929428100586 1.68799996376037598
-0.648000001907348633 0.773999929428100586 1.68799996376037598
-0.624000012874603271 0.773999929428100586 1.68799996376037598
-0.599999964237213135 0.773999929428100586 1.68799996376037598
-0.569999992847442627 0.773999929428100586 1.68799996376037598
-0.197999954223632812 0.78600001335144043 1.68799996376037598
0.342000007629394531 -0.0360000133514404297 1.6940000057220459
0.407999992370605469 0.624000072479248047 1.6940000057220459
0.396000027656555176 0.701999902725219727 1.6940000057220459
0.402000069618225098 0.701999902725219727 1.6940000057220459
-0.546000003814697266 0.773999929428100586 1.6940000057220459
-0.522000014781951904 0.773999929428100586 1.6940000057220459
-0.491999983787536621 0.773999929428100586 1.6940000057220459
-0.467999935150146484 0.773999929428100586 1.6940000057220459
-0.156000018119812012 0.779999971389770508 1.6940000057220459
-0.143999934196472168 0.779999971389770508 1.6940000057220459
0.348000049591064453 -0.425999999046325684 1.70000004768371582
0.342000007629394531 -0.419999957084655762 1.70000004768371582
0.353999972343444824 -0.414000034332275391 1.70000004768371582
0.342000007629394531 -0.396000027656555176 1.70000004768371582
0.353999972343444824 -0.396000027656555176 1.70000004768371582
0.360000014305114746 -0.0599999427795410156 1.70000004768371582
0.371999979019165039 -0.0419999361038208008 1.70000004768371582
0.378000020980834961 -0.0419999361038208008 1.70000004768371582
0.348000049591064453 -0.0360000133514404297 1.70000004768371582
0.366000056266784668 -0.0239999294281005859 1.70000004768371582
0.360000014305114746 0.0240000486373901367 1.70000004768371582
0.360000014305114746 0.0299999713897705078 1.70000004768371582
0.396000027656555176 0.0479999780654907227 1.70000004768371582
0.371999979019165039 0.0540000200271606445 1.70000004768371582
0.378000020980834961 0.0540000200271606445 1.70000004768371582
0.378000020980834961 0.0839999914169311523 1.70000004768371582
0.378000020980834961 0.101999998092651367 1.70000004768371582
0.371999979019165039 0.120000004768371582 1.70000004768371582
0.366000056266784668 0.126000046730041504 1.70000004768371582
0.378000020980834961 0.162000060081481934 1.70000004768371582
0.371999979019165039 0.167999982833862305 1.70000004768371582
0.378000020980834961 0.180000066757202148 1.70000004768371582
0.384000062942504883 0.210000038146972656 1.70000004768371582
0.371999979019165039 0.222000002861022949 1.70000004768371582
0.389999985694885254 0.251999974250793457 1.70000004768371582
0.389999985694885254 0.282000064849853516 1.70000004768371582
0.402000069618225098 0.30000007152557373 1.70000004768371582
0.396000027656555176 0.366000056266784668 1.70000004768371582
0.378000020980834961 0.414000034332275391 1.70000004768371582
0.402000069618225098 0.624000072479248047 1.70000004768371582
0.402000069618225098 0.630000114440917969 1.70000004768371582
0.414000034332275391 0.677999973297119141 1.70000004768371582
0.396000027656555176 0.696000099182128906 1.70000004768371582
0.396000027656555176 0.701999902725219727 1.70000004768371582
0.402000069618225098 0.701999902725219727 1.70000004768371582
-0.689999997615814209 0.773999929428100586 1.70000004768371582
-0.671999990940093994 0.773999929428100586 1.70000004768371582
-0.648000001907348633 0.773999929428100586 1.70000004768371582
-0.624000012874603271 0.773999929428100586 1.70000004768371582
-0.599999964237213135 0.773999929428100586 1.70000004768371582
-0.569999992847442627 0.773999929428100586 1.70000004768371582
-0.546000003814697266 0.773999929428100586 1.70000004768371582
-0.522000014781951904 0.773999929428100586 1.70000004768371582
-0.498000025749206543 0.773999929428100586 1.70000004768371582
-0.473999977111816406 0.773999929428100586 1.70000004768371582
-0.444000005722045898 0.773999929428100586 1.70000004768371582
-0.414000034332275391 0.773999929428100586 1.70000004768371582
-0.348000049591064453 0.773999929428100586 1.70000004768371582
-0.695999979972839355 0.779999971389770508 1.70000004768371582
-0.671999990940093994 0.779999971389770508 1.70000004768371582
-0.515999972820281982 0.779999971389770508 1.70000004768371582
-0.485999941825866699 0.779999971389770508 1.70000004768371582
-0.473999977111816406 0.779999971389770508 1.70000004768371582
-0.444000005722045898 0.779999971389770508 1.70000004768371582
-0.419999957084655762 0.779999971389770508 1.70000004768371582
-0.396000027656555176 0.779999971389770508 1.70000004768371582
-0.371999979019165039 0.779999971389770508 1.70000004768371582
-0.348000049591064453 0.779999971389770508 1.70000004768371582
-0.324000000953674316 0.779999971389770508 1.70000004768371582
-0.29999995231628418 0.779999971389770508 1.70000004768371582
-0.269999980926513672 0.779999971389770508 1.70000004768371582
-0.245999932289123535 0.779999971389770508 1.70000004768371582
-0.222000002861022949 0.779999971389770508 1.70000004768371582
-0.197999954223632812 0.779999971389770508 1.70000004768371582
-0.174000024795532227 0.779999971389770508 1.70000004768371582
-0.14999997615814209 0.779999971389770508 1.70000004768371582
-0.120000004768371582 0.779999971389770508 1.70000004768371582
0.371999979019165039 -0.432000041007995605 1.70599997043609619
0.335999965667724609 -0.371999979019165039 1.70599997043609619
0.353999972343444824 -0.371999979019165039 1.70599997043609619
0.360000014305114746 -0.0839999914169311523 1.70599997043609619
0.371999979019165039 0.0780000686645507812 1.70599997043609619
0.371999979019165039 0.180000066757202148 1.70599997043609619
0.371999979019165039 0.228000044822692871 1.70599997043609619
0.378000020980834961 0.228000044822692871 1.70599997043609619
0.174000024795532227 0.246000051498413086 1.70599997043609619
0.180000066757202148 0.246000051498413086 1.70599997043609619
0.174000024795532227 0.251999974250793457 1.70599997043609619
0.180000066757202148 0.251999974250793457 1.70599997043609619
0.389999985694885254 0.324000000953674316 1.70599997043609619
0.396000027656555176 0.384000062942504883 1.70599997043609619
-0.702000021934509277 0.773999929428100586 1.70599997043609619
-0.396000027656555176 0.773999929428100586 1.70599997043609619
-0.371999979019165039 0.773999929428100586 1.70599997043609619
-0.324000000953674316 0.773999929428100586 1.70599997043609619
-0.294000029563903809 0.773999929428100586 1.70599997043609619
-0.269999980926513672 0.773999929428100586 1.70599997043609619
-0.0959999561309814453 0.779999971389770508 1.70599997043609619
0.348000049591064453 -0.348000049591064453 1.71200001239776611
0.378000020980834961 0.14999997615814209 1.71200001239776611
-1.49399995803833008 0.251999974250793457 1.71200001239776611
0.402000069618225098 0.420000076293945312 1.71200001239776611
0.402000069618225098 0.654000043869018555 1.71200001239776611
-0.245999932289123535 0.773999929428100586 1.71200001239776611
-0.222000002861022949 0.773999929428100586 1.71200001239776611
-0.197999954223632812 0.773999929428100586 1.71200001239776611
-0.174000024795532227 0.773999929428100586 1.71200001239776611
-0.14999997615814209 0.773999929428100586 1.71200001239776611
-0.120000004768371582 0.773999929428100586 1.71200001239776611
-0.0959999561309814453 0.773999929428100586 1.71200001239776611
-0.702000021934509277 0.779999971389770508 1.71200001239776611
-1.49399995803833008 0.240000009536743164 1.71800005435943604
0.384000062942504883 0.330000042915344238 1.71800005435943604
-0.0720000267028808594 0.779999971389770508 1.71800005435943604
0.324000000953674316 -0.335999965667724609 1.72399997711181641
-1.47000002861022949 0.258000016212463379 1.72399997711181641
-1.44000005722045898 0.258000016212463379 1.72399997711181641
-1.5 0.276000022888183594 1.72399997711181641
0.389999985694885254 0.425999999046325684 1.72399997711181641
-0.0720000267028808594 0.773999929428100586 1.72399997711181641
-0.0479999780654907227 0.773999929428100586 1.72399997711181641
-0.0419999361038208008 0.779999971389770508 1.72399997711181641
0.335999965667724609 -0.365999937057495117 1.73000001907348633
0.353999972343444824 -0.365999937057495117 1.73000001907348633
0.342000007629394531 -0.348000049591064453 1.73000001907348633
0.353999972343444824 -0.348000049591064453 1.73000001907348633
0.324000000953674316 -0.335999965667724609 1.73000001907348633
0.335999965667724609 -0.317999958992004395 1.73000001907348633
0.366000056266784668 -0.0299999713897705078 1.73000001907348633
0.378000020980834961 -0.0299999713897705078 1.73000001907348633
0.360000014305114746 0.0240000486373901367 1.73000001907348633
0.353999972343444824 0.0299999713897705078 1.73000001907348633
0.366000056266784668 0.0540000200271606445 1.73000001907348633
0.353999972343444824 0.0900000333786010742 1.73000001907348633
0.371999979019165039 0.101999998092651367 1.73000001907348633
0.378000020980834961 0.101999998092651367 1.73000001907348633
0.360000014305114746 0.14999997615814209 1.73000001907348633
0.366000056266784668 0.228000044822692871 1.73000001907348633
-1.5 0.240000009536743164 1.73000001907348633
-1.5 0.251999974250793457 1.73000001907348633
-1.47000002861022949 0.251999974250793457 1.73000001907348633
-1.44599997997283936 0.251999974250793457 1.73000001907348633
-1.42200005054473877 0.258000016212463379 1.73000001907348633
-1.39800000190734863 0.258000016212463379 1.73000001907348633
0.396000027656555176 0.264000058174133301 1.73000001907348633
-1.48800003528594971 0.276000022888183594 1.73000001907348633
-1.47000002861022949 0.276000022888183594 1.73000001907348633
0.384000062942504883 0.276000022888183594 1.73000001907348633
0.389999985694885254 0.30000007152557373 1.73000001907348633
0.402000069618225098 0.305999994277954102 1.73000001907348633
0.384000062942504883 0.414000034332275391 1.73000001907348633
0.389999985694885254 0.425999999046325684 1.73000001907348633
0.402000069618225098 0.648000001907348633 1.73000001907348633
0.402000069618225098 0.654000043869018555 1.73000001907348633
0.396000027656555176 0.660000085830688477 1.73000001907348633
0.402000069618225098 0.677999973297119141 1.73000001907348633
0.396000027656555176 0.690000057220458984 1.73000001907348633
0.378000020980834961 0.701999902725219727 1.73000001907348633
0.414000034332275391 0.701999902725219727 1.73000001907348633
-0.75 0.75 1.73000001907348633
-0.719999969005584717 0.762000083923339844 1.73000001907348633
-0.695999979972839355 0.762000083923339844 1.73000001907348633
-0.671999990940093994 0.762000083923339844 1.73000001907348633
-0.648000001907348633 0.762000083923339844 1.73000001907348633
-0.624000012874603271 0.762000083923339844 1.73000001907348633
-0.599999964237213135 0.762000083923339844 1.73000001907348633
-0.569999992847442627 0.762000083923339844 1.73000001907348633
-0.546000003814697266 0.762000083923339844 1.73000001907348633
-0.522000014781951904 0.762000083923339844 1.73000001907348633
-0.491999983787536621 0.762000083923339844 1.73000001907348633
-0.473999977111816406 0.762000083923339844 1.73000001907348633
-0.444000005722045898 0.762000083923339844 1.73000001907348633
-0.419999957084655762 0.762000083923339844 1.73000001907348633
-0.396000027656555176 0.762000083923339844 1.73000001907348633
-0.330000042915344238 0.762000083923339844 1.73000001907348633
-0.324000000953674316 0.762000083923339844 1.73000001907348633
-0.371999979019165039 0.768000125885009766 1.73000001907348633
-0.29999995231628418 0.768000125885009766 1.73000001907348633
-0.269999980926513672 0.768000125885009766 1.73000001907348633
-0.245999932289123535 0.768000125885009766 1.73000001907348633
-0.222000002861022949 0.768000125885009766 1.73000001907348633
-0.197999954223632812 0.768000125885009766 1.73000001907348633
-0.174000024795532227 0.768000125885009766 1.73000001907348633
-0.14999997615814209 0.768000125885009766 1.73000001907348633
-0.120000004768371582 0.768000125885009766 1.73000001907348633
-0.0959999561309814453 0.768000125885009766 1.73000001907348633
-0.0299999713897705078 0.768000125885009766 1.73000001907348633
-0.0180000066757202148 0.768000125885009766 1.73000001907348633
-0.0720000267028808594 0.773999929428100586 1.73000001907348633
-0.0659999847412109375 0.779999971389770508 1.73000001907348633
-0.0479999780654907227 0.779999971389770508 1.73000001907348633
0.342000007629394531 -0.383999943733215332 1.73600006103515625
0.353999972343444824 -0.324000000953674316 1.73600006103515625
0.330000042915344238 -0.29999995231628418 1.73600006103515625
0.366000056266784668 -0.0839999914169311523 1.73600006103515625
-1.45799994468688965 0.246000051498413086 1.73600006103515625
-1.43400001525878906 0.246000051498413086 1.73600006103515625
-1.42200005054473877 0.246000051498413086 1.73600006103515625
-1.3739999532699585 0.258000016212463379 1.73600006103515625
0.389999985694885254 0.330000042915344238 1.73600006103515625
-0.0239999294281005859 0.779999971389770508 1.73600006103515625
0.378000020980834961 -0.317999958992004395 1.74199998378753662
0.324000000953674316 -0.294000029563903809 1.74199998378753662
0.360000014305114746 0.162000060081481934 1.74199998378753662
-1.39800000190734863 0.246000051498413086 1.74199998378753662
0.371999979019165039 0.71399998664855957 1.74199998378753662
0.371999979019165039 0.726000070571899414 1.74199998378753662
-0.761999964714050293 0.75 1.74199998378753662
-0.719999969005584717 0.78600001335144043 1.74199998378753662
0.384000062942504883 -0.330000042915344238 1.74800002574920654
0.324000000953674316 -0.305999994277954102 1.74800002574920654
0.353999972343444824 -0.29999995231628418 1.74800002574920654
0.384000062942504883 -0.29999995231628418 1.74800002574920654
-1.36800003051757812 0.246000051498413086 1.74800002574920654
-1.34399998188018799 0.246000051498413086 1.74800002574920654
-1.34399998188018799 0.251999974250793457 1.74800002574920654
-1.31999993324279785 0.251999974250793457 1.74800002574920654
-1.44599997997283936 0.276000022888183594 1.74800002574920654
-1.42200005054473877 0.276000022888183594 1.74800002574920654
0.396000027656555176 0.641999959945678711 1.74800002574920654
0.366000056266784668 -0.342000007629394531 1.75400006771087646
0.378000020980834961 -0.330000042915344238 1.75400006771087646
0.371999979019165039 -0.317999958992004395 1.75400006771087646
0.384000062942504883 -0.317999958992004395 1.75400006771087646
0.335999965667724609 -0.312000036239624023 1.75400006771087646
0.324000000953674316 -0.29999995231628418 1.75400006771087646
0.335999965667724609 -0.29999995231628418 1.75400006771087646
0.353999972343444824 -0.29999995231628418 1.75400006771087646
0.378000020980834961 -0.29999995231628418 1.75400006771087646
0.342000007629394531 -0.269999980926513672 1.75400006771087646
0.353999972343444824 -0.269999980926513672 1.75400006771087646
0.353999972343444824 0.0299999713897705078 1.75400006771087646
0.360000014305114746 0.0540000200271606445 1.75400006771087646
0.360000014305114746 0.0780000686645507812 1.75400006771087646
-1.44599997997283936 0.233999967575073242 1.75400006771087646
-1.48800003528594971 0.240000009536743164 1.75400006771087646
-1.47000002861022949 0.240000009536743164 1.75400006771087646
-1.42200005054473877 0.240000009536743164 1.75400006771087646
-1.39800000190734863 0.240000009536743164 1.75400006771087646
-1.3739999532699585 0.240000009536743164 1.75400006771087646
-1.34399998188018799 0.240000009536743164 1.75400006771087646
-1.31999993324279785 0.246000051498413086 1.75400006771087646
-1.35599994659423828 0.251999974250793457 1.75400006771087646
-1.34399998188018799 0.251999974250793457 1.75400006771087646
-1.31999993324279785 0.251999974250793457 1.75400006771087646
-1.29600000381469727 0.251999974250793457 1.75400006771087646
-1.37999999523162842 0.269999980926513672 1.75400006771087646
-1.40999996662139893 0.276000022888183594 1.75400006771087646
-1.39800000190734863 0.276000022888183594 1.75400006771087646
-1.47599995136260986 0.282000064849853516 1.75400006771087646
-1.44599997997283936 0.282000064849853516 1.75400006771087646
0.384000062942504883 0.282000064849853516 1.75400006771087646
0.384000062942504883 0.305999994277954102 1.75400006771087646
0.389999985694885254 0.420000076293945312 1.75400006771087646
0.396000027656555176 0.605999946594238281 1.75400006771087646
0.402000069618225098 0.660000085830688477 1.75400006771087646
0.396000027656555176 0.666000127792358398 1.75400006771087646
0.389999985694885254 0.677999973297119141 1.75400006771087646
0.402000069618225098 0.677999973297119141 1.75400006771087646
0.371999979019165039 0.701999902725219727 1.75400006771087646
0.378000020980834961 0.701999902725219727 1.75400006771087646
0.371999979019165039 0.726000070571899414 1.75400006771087646
-0.75 0.732000112533569336 1.75400006771087646
-0.755999982357025146 0.737999916076660156 1.75400006771087646
-0.75 0.75 1.75400006771087646
-0.719999969005584717 0.75 1.75400006771087646
-0.695999979972839355 0.75 1.75400006771087646
-0.671999990940093994 0.75 1.75400006771087646
-0.648000001907348633 0.75 1.75400006771087646
-0.624000012874603271 0.75 1.75400006771087646
-0.599999964237213135 0.756000041961669922 1.75400006771087646
-0.569999992847442627 0.756000041961669922 1.75400006771087646
-0.546000003814697266 0.756000041961669922 1.75400006771087646
-0.522000014781951904 0.756000041961669922 1.75400006771087646
-0.498000025749206543 0.756000041961669922 1.75400006771087646
-0.473999977111816406 0.756000041961669922 1.75400006771087646
-0.444000005722045898 0.756000041961669922 1.75400006771087646
-0.419999957084655762 0.756000041961669922 1.75400006771087646
-0.396000027656555176 0.756000041961669922 1.75400006771087646
-0.371999979019165039 0.756000041961669922 1.75400006771087646
-0.348000049591064453 0.756000041961669922 1.75400006771087646
-0.324000000953674316 0.756000041961669922 1.75400006771087646
-0.29999995231628418 0.756000041961669922 1.75400006771087646
-0.269999980926513672 0.756000041961669922 1.75400006771087646
-0.0180000066757202148 0.756000041961669922 1.75400006771087646
-0.755999982357025146 0.762000083923339844 1.75400006771087646
-0.245999932289123535 0.762000083923339844 1.75400006771087646
-0.222000002861022949 0.762000083923339844 1.75400006771087646
-0.197999954223632812 0.762000083923339844 1.75400006771087646
-0.174000024795532227 0.762000083923339844 1.75400006771087646
-0.14999997615814209 0.762000083923339844 1.75400006771087646
-0.120000004768371582 0.762000083923339844 1.75400006771087646
-0.0959999561309814453 0.762000083923339844 1.75400006771087646
-0.0720000267028808594 0.762000083923339844 1.75400006771087646
-0.0479999780654907227 0.762000083923339844 1.75400006771087646
-0.011999964714050293 0.779999971389770508 1.75400006771087646
0.342000007629394531 -0.348000049591064453 1.75999999046325684
0.324000000953674316 -0.269999980926513672 1.75999999046325684
0.324000000953674316 -0.245999932289123535 1.75999999046325684
0.348000049591064453 -0.245999932289123535 1.75999999046325684
0.324000000953674316 -0.222000002861022949 1.75999999046325684
-1.29600000381469727 0.246000051498413086 1.75999999046325684
-1.27199995517730713 0.251999974250793457 1.75999999046325684
-1.3739999532699585 0.276000022888183594 1.75999999046325684
-1.34399998188018799 0.276000022888183594 1.75999999046325684
-1.47000002861022949 0.282000064849853516 1.75999999046325684
0.371999979019165039 0.696000099182128906 1.75999999046325684
-0.726000010967254639 0.792000055313110352 1.75999999046325684
0.378000020980834961 -0.269999980926513672 1.76600003242492676
0.353999972343444824 -0.245999932289123535 1.76600003242492676
-1.27199995517730713 0.240000009536743164 1.76600003242492676
-0.719999969005584717 0.743999958038330078 1.76600003242492676
-0.653999984264373779 0.743999958038330078 1.76600003242492676
-0.648000001907348633 0.743999958038330078 1.76600003242492676
0.330000042915344238 -0.222000002861022949 1.77199995517730713
0.360000014305114746 -0.222000002861022949 1.77199995517730713
0.324000000953674316 -0.197999954223632812 1.77199995517730713
0.371999979019165039 0.258000016212463379 1.77199995517730713
0.240000009536743164 0.732000112533569336 1.77199995517730713
-0.695999979972839355 0.743999958038330078 1.77199995517730713
-0.624000012874603271 0.743999958038330078 1.77199995517730713
0.246000051498413086 0.75 1.77199995517730713
0.389999985694885254 -0.287999987602233887 1.77799999713897705
0.324000000953674316 -0.269999980926513672 1.77799999713897705
0.330000042915344238 -0.269999980926513672 1.77799999713897705
0.389999985694885254 -0.269999980926513672 1.77799999713897705
0.371999979019165039 -0.245999932289123535 1.77799999713897705
0.378000020980834961 -0.245999932289123535 1.77799999713897705
0.324000000953674316 -0.240000009536743164 1.77799999713897705
0.330000042915344238 -0.240000009536743164 1.77799999713897705
0.330000042915344238 -0.222000002861022949 1.77799999713897705
0.353999972343444824 -0.222000002861022949 1.77799999713897705
0.324000000953674316 -0.215999960899353027 1.77799999713897705
0.342000007629394531 -0.197999954223632812 1.77799999713897705
0.348000049591064453 0.0479999780654907227 1.77799999713897705
0.360000014305114746 0.0659999847412109375 1.77799999713897705
0.353999972343444824 0.0780000686645507812 1.77799999713897705
-1.49399995803833008 0.228000044822692871 1.77799999713897705
-1.46399998664855957 0.228000044822692871 1.77799999713897705
-1.44599997997283936 0.233999967575073242 1.77799999713897705
-1.42200005054473877 0.233999967575073242 1.77799999713897705
-1.39800000190734863 0.233999967575073242 1.77799999713897705
-1.3739999532699585 0.233999967575073242 1.77799999713897705
-1.34399998188018799 0.233999967575073242 1.77799999713897705
-1.31999993324279785 0.233999967575073242 1.77799999713897705
-1.29600000381469727 0.233999967575073242 1.77799999713897705
-1.27199995517730713 0.233999967575073242 1.77799999713897705
-1.25999999046325684 0.251999974250793457 1.77799999713897705
0.366000056266784668 0.264000058174133301 1.77799999713897705
-1.30200004577636719 0.269999980926513672 1.77799999713897705
-1.29600000381469727 0.269999980926513672 1.77799999713897705
-1.32599997520446777 0.276000022888183594 1.77799999713897705
-1.31999993324279785 0.276000022888183594 1.77799999713897705
-1.47599995136260986 0.282000064849853516 1.77799999713897705
-1.40999996662139893 0.282000064849853516 1.77799999713897705
-1.39800000190734863 0.282000064849853516 1.77799999713897705
-1.3739999532699585 0.282000064849853516 1.77799999713897705
-1.45200002193450928 0.287999987602233887 1.77799999713897705
0.384000062942504883 0.305999994277954102 1.77799999713897705
0.389999985694885254 0.618000030517578125 1.77799999713897705
0.396000027656555176 0.630000114440917969 1.77799999713897705
0.402000069618225098 0.654000043869018555 1.77799999713897705
0.384000062942504883 0.666000127792358398 1.77799999713897705
0.371999979019165039 0.677999973297119141 1.77799999713897705
0.378000020980834961 0.677999973297119141 1.77799999713897705
0.407999992370605469 0.677999973297119141 1.77799999713897705
0.366000056266784668 0.701999902725219727 1.77799999713897705
0.378000020980834961 0.720000028610229492 1.77799999713897705
0.366000056266784668 0.726000070571899414 1.77799999713897705
0.384000062942504883 0.732000112533569336 1.77799999713897705
-0.75 0.737999916076660156 1.77799999713897705
-0.755999982357025146 0.743999958038330078 1.77799999713897705
-0.719999969005584717 0.743999958038330078 1.77799999713897705
-0.695999979972839355 0.743999958038330078 1.77799999713897705
-0.671999990940093994 0.743999958038330078 1.77799999713897705
-0.648000001907348633 0.743999958038330078 1.77799999713897705
-0.624000012874603271 0.743999958038330078 1.77799999713897705
-0.599999964237213135 0.743999958038330078 1.77799999713897705
-0.569999992847442627 0.743999958038330078 1.77799999713897705
-0.546000003814697266 0.743999958038330078 1.77799999713897705
-0.522000014781951904 0.743999958038330078 1.77799999713897705
-0.498000025749206543 0.743999958038330078 1.77799999713897705
-0.455999970436096191 0.743999958038330078 1.77799999713897705
0.246000051498413086 0.743999958038330078 1.77799999713897705
0.251999974250793457 0.743999958038330078 1.77799999713897705
-0.768000006675720215 0.75 1.77799999713897705
-0.611999988555908203 0.75 1.77799999713897705
-0.599999964237213135 0.75 1.77799999713897705
-0.56400001049041748 0.75 1.77799999713897705
-0.546000003814697266 0.75 1.77799999713897705
-0.522000014781951904 0.75 1.77799999713897705
-0.498000025749206543 0.75 1.77799999713897705
-0.473999977111816406 0.75 1.77799999713897705
-0.444000005722045898 0.75 1.77799999713897705
-0.419999957084655762 0.75 1.77799999713897705
-0.396000027656555176 0.75 1.77799999713897705
-0.371999979019165039 0.75 1.77799999713897705
-0.348000049591064453 0.75 1.77799999713897705
-0.324000000953674316 0.75 1.77799999713897705
-0.29999995231628418 0.75 1.77799999713897705
-0.269999980926513672 0.75 1.77799999713897705
-0.245999932289123535 0.75 1.77799999713897705
-0.222000002861022949 0.75 1.77799999713897705
-0.197999954223632812 0.75 1.77799999713897705
-0.174000024795532227 0.75 1.77799999713897705
-0.0299999713897705078 0.75 1.77799999713897705
-0.0239999294281005859 0.75 1.77799999713897705
0.246000051498413086 0.75 1.77799999713897705
0.251999974250793457 0.75 1.77799999713897705
0.276000022888183594 0.75 1.77799999713897705
-0.14999997615814209 0.756000041961669922 1.77799999713897705
-0.120000004768371582 0.756000041961669922 1.77799999713897705
-0.0959999561309814453 0.756000041961669922 1.77799999713897705
-0.0720000267028808594 0.756000041961669922 1.77799999713897705
0.402000069618225098 -0.26399993896484375 1.78400003910064697
0.378000020980834961 -0.222000002861022949 1.78400003910064697
0.353999972343444824 -0.197999954223632812 1.78400003910064697
0.360000014305114746 -0.174000024795532227 1.78400003910064697
0.348000049591064453 0.0780000686645507812 1.78400003910064697
0.402000069618225098 0.648000001907348633 1.78400003910064697
0 0.726000070571899414 1.78400003910064697
-0.444000005722045898 0.743999958038330078 1.78400003910064697
-0.419999957084655762 0.743999958038330078 1.78400003910064697
-0.396000027656555176 0.743999958038330078 1.78400003910064697
0.276000022888183594 0.743999958038330078 1.78400003910064697
0.30000007152557373 0.75 1.78400003910064697
0.330000042915344238 0.75 1.78400003910064697
-0.779999971389770508 0.762000083923339844 1.78400003910064697
0.335999965667724609 -0.287999987602233887 1.78999996185302734
0.324000000953674316 -0.197999954223632812 1.78999996185302734
0.378000020980834961 -0.197999954223632812 1.78999996185302734
0.330000042915344238 -0.174000024795532227 1.78999996185302734
0.348000049591064453 0.0540000200271606445 1.78999996185302734
-1.42799997329711914 0.287999987602233887 1.78999996185302734
0.371999979019165039 0.671999931335449219 1.78999996185302734
-0.371999979019165039 0.743999958038330078 1.78999996185302734
-0.348000049591064453 0.743999958038330078 1.78999996185302734
-0.324000000953674316 0.743999958038330078 1.78999996185302734
-0.29999995231628418 0.743999958038330078 1.78999996185302734
-0.269999980926513672 0.743999958038330078 1.78999996185302734
0.30000007152557373 0.743999958038330078 1.78999996185302734
0.330000042915344238 0.743999958038330078 1.78999996185302734
0.353999972343444824 0.75 1.78999996185302734
0.366000056266784668 -0.101999998092651367 1.79600000381469727
0.353999972343444824 -0.0959999561309814453 1.79600000381469727
-1.5 0.222000002861022949 1.79600000381469727
-1.47000002861022949 0.222000002861022949 1.79600000381469727
-1.40999996662139893 0.222000002861022949 1.79600000381469727
-1.39199995994567871 0.222000002861022949 1.79600000381469727
-1.29600000381469727 0.276000022888183594 1.79600000381469727
-0.245999932289123535 0.743999958038330078 1.79600000381469727
-0.222000002861022949 0.743999958038330078 1.79600000381469727
-0.167999982833862305 0.743999958038330078 1.79600000381469727
-0.0360000133514404297 0.743999958038330078 1.79600000381469727
-0.0239999294281005859 0.743999958038330078 1.79600000381469727
0.396000027656555176 -0.26399993896484375 1.80200004577636719
0.402000069618225098 -0.258000016212463379 1.80200004577636719
0.389999985694885254 -0.245999932289123535 1.80200004577636719
0.402000069618225098 -0.240000009536743164 1.80200004577636719
0.396000027656555176 -0.222000002861022949 1.80200004577636719
0.402000069618225098 -0.222000002861022949 1.80200004577636719
0.330000042915344238 -0.197999954223632812 1.80200004577636719
0.378000020980834961 -0.197999954223632812 1.80200004577636719
0.360000014305114746 -0.18599998950958252 1.80200004577636719
0.348000049591064453 -0.174000024795532227 1.80200004577636719
0.353999972343444824 -0.174000024795532227 1.80200004577636719
0.378000020980834961 -0.161999940872192383 1.80200004577636719
0.366000056266784668 -0.108000040054321289 1.80200004577636719
0.353999972343444824 -0.0959999561309814453 1.80200004577636719
0.348000049591064453 0.0600000619888305664 1.80200004577636719
-1.5 0.222000002861022949 1.80200004577636719
-1.47000002861022949 0.222000002861022949 1.80200004577636719
-1.44599997997283936 0.222000002861022949 1.80200004577636719
-1.42200005054473877 0.222000002861022949 1.80200004577636719
-1.39800000190734863 0.222000002861022949 1.80200004577636719
-1.3739999532699585 0.222000002861022949 1.80200004577636719
-1.34399998188018799 0.222000002861022949 1.80200004577636719
-1.28400003910064697 0.222000002861022949 1.80200004577636719
-1.45799994468688965 0.228000044822692871 1.80200004577636719
-1.44599997997283936 0.228000044822692871 1.80200004577636719
-1.3320000171661377 0.228000044822692871 1.80200004577636719
-1.31400001049041748 0.228000044822692871 1.80200004577636719
-1.27799999713897705 0.228000044822692871 1.80200004577636719
-1.27199995517730713 0.228000044822692871 1.80200004577636719
-1.25999999046325684 0.251999974250793457 1.80200004577636719
-1.31400001049041748 0.269999980926513672 1.80200004577636719
-1.27799999713897705 0.269999980926513672 1.80200004577636719
-1.30799996852874756 0.276000022888183594 1.80200004577636719
-1.29600000381469727 0.276000022888183594 1.80200004577636719
-1.37999999523162842 0.282000064849853516 1.80200004577636719
-1.3619999885559082 0.282000064849853516 1.80200004577636719
-1.3320000171661377 0.282000064849853516 1.80200004577636719
-1.44599997997283936 0.287999987602233887 1.80200004577636719
-1.42200005054473877 0.287999987602233887 1.80200004577636719
0.384000062942504883 0.599999904632568359 1.80200004577636719
0.389999985694885254 0.624000072479248047 1.80200004577636719
0.402000069618225098 0.635999917984008789 1.80200004577636719
0.396000027656555176 0.648000001907348633 1.80200004577636719
0.396000027656555176 0.654000043869018555 1.80200004577636719
0.402000069618225098 0.654000043869018555 1.80200004577636719
0.371999979019165039 0.666000127792358398 1.80200004577636719
0.366000056266784668 0.677999973297119141 1.80200004577636719
0.360000014305114746 0.701999902725219727 1.80200004577636719
0.378000020980834961 0.707999944686889648 1.80200004577636719
0.360000014305114746 0.726000070571899414 1.80200004577636719
-0.761999964714050293 0.732000112533569336 1.80200004577636719
-0.75 0.732000112533569336 1.80200004577636719
-0.719999969005584717 0.732000112533569336 1.80200004577636719
-0.695999979972839355 0.732000112533569336 1.80200004577636719
-0.653999984264373779 0.732000112533569336 1.80200004577636719
-0.648000001907348633 0.732000112533569336 1.80200004577636719
0.246000051498413086 0.732000112533569336 1.80200004577636719
-0.624000012874603271 0.737999916076660156 1.80200004577636719
-0.599999964237213135 0.737999916076660156 1.80200004577636719
-0.569999992847442627 0.737999916076660156 1.80200004577636719
-0.546000003814697266 0.737999916076660156 1.80200004577636719
-0.522000014781951904 0.737999916076660156 1.80200004577636719
-0.498000025749206543 0.737999916076660156 1.80200004577636719
-0.473999977111816406 0.737999916076660156 1.80200004577636719
-0.444000005722045898 0.737999916076660156 1.80200004577636719
-0.419999957084655762 0.737999916076660156 1.80200004577636719
-0.396000027656555176 0.737999916076660156 1.80200004577636719
-0.371999979019165039 0.737999916076660156 1.80200004577636719
-0.348000049591064453 0.737999916076660156 1.80200004577636719
0 0.737999916076660156 1.80200004577636719
0.251999974250793457 0.737999916076660156 1.80200004577636719
0.348000049591064453 0.737999916076660156 1.80200004577636719
-0.324000000953674316 0.743999958038330078 1.80200004577636719
-0.29999995231628418 0.743999958038330078 1.80200004577636719
-0.269999980926513672 0.743999958038330078 1.80200004577636719
-0.245999932289123535 0.743999958038330078 1.80200004577636719
-0.222000002861022949 0.743999958038330078 1.80200004577636719
-0.197999954223632812 0.743999958038330078 1.80200004577636719
-0.174000024795532227 0.743999958038330078 1.80200004577636719
-0.14999997615814209 0.743999958038330078 1.80200004577636719
-0.120000004768371582 0.743999958038330078 1.80200004577636719
-0.0959999561309814453 0.743999958038330078 1.80200004577636719
-0.0720000267028808594 0.743999958038330078 1.80200004577636719
-0.0479999780654907227 0.743999958038330078 1.80200004577636719
-0.0239999294281005859 0.743999958038330078 1.80200004577636719
0.276000022888183594 0.743999958038330078 1.80200004577636719
0.30000007152557373 0.743999958038330078 1.80200004577636719
-0.768000006675720215 0.75 1.80200004577636719
-0.197999954223632812 0.75 1.80200004577636719
-0.14999997615814209 0.75 1.80200004577636719
-0.120000004768371582 0.75 1.80200004577636719
-0.0959999561309814453 0.75 1.80200004577636719
-0.0720000267028808594 0.75 1.80200004577636719
-0.0479999780654907227 0.75 1.80200004577636719
-0.0239999294281005859 0.75 1.80200004577636719
0.402000069618225098 -0.167999982833862305 1.80799996852874756
0.348000049591064453 -0.0839999914169311523 1.80799996852874756
0.348000049591064453 0.0839999914169311523 1.80799996852874756
-1.31999993324279785 0.222000002861022949 1.80799996852874756
-1.47599995136260986 0.228000044822692871 1.80799996852874756
-1.47000002861022949 0.287999987602233887 1.80799996852874756
-0.773999989032745361 0.720000028610229492 1.80799996852874756
0.246000051498413086 0.720000028610229492 1.80799996852874756
0.407999992370605469 -0.179999947547912598 1.81400001049041748
0.342000007629394531 -0.0720000267028808594 1.81400001049041748
0.353999972343444824 0.0180000066757202148 1.81400001049041748
-1.27199995517730713 0.222000002861022949 1.81400001049041748
0.353999972343444824 -0.0720000267028808594 1.8200000524520874
-0.779999971389770508 0.720000028610229492 1.8200000524520874
-0.779999971389770508 0.726000070571899414 1.8200000524520874
-0.779999971389770508 0.756000041961669922 1.8200000524520874
0.414000034332275391 -0.251999974250793457 1.82599997520446777
0.396000027656555176 -0.197999954223632812 1.82599997520446777
0.402000069618225098 -0.192000031471252441 1.82599997520446777
0.389999985694885254 -0.174000024795532227 1.82599997520446777
0.348000049591064453 -0.0900000333786010742 1.82599997520446777
0.360000014305114746 -0.0779999494552612305 1.82599997520446777
0.335999965667724609 -0.0720000267028808594 1.82599997520446777
0.353999972343444824 -0.0720000267028808594 1.82599997520446777
0.371999979019165039 0.011999964714050293 1.82599997520446777
0.378000020980834961 0.011999964714050293 1.82599997520446777
-1.5 0.210000038146972656 1.82599997520446777
-1.46399998664855957 0.210000038146972656 1.82599997520446777
-1.44599997997283936 0.210000038146972656 1.82599997520446777
-1.42200005054473877 0.215999960899353027 1.82599997520446777
-1.39800000190734863 0.215999960899353027 1.82599997520446777
-1.3739999532699585 0.215999960899353027 1.82599997520446777
-1.34399998188018799 0.215999960899353027 1.82599997520446777
-1.31999993324279785 0.215999960899353027 1.82599997520446777
-1.29600000381469727 0.215999960899353027 1.82599997520446777
-1.27199995517730713 0.215999960899353027 1.82599997520446777
-1.26600003242492676 0.228000044822692871 1.82599997520446777
-1.27199995517730713 0.251999974250793457 1.82599997520446777
-1.27799999713897705 0.258000016212463379 1.82599997520446777
-1.31400001049041748 0.282000064849853516 1.82599997520446777
-1.37999999523162842 0.287999987602233887 1.82599997520446777
-1.3739999532699585 0.287999987602233887 1.82599997520446777
-1.33800005912780762 0.287999987602233887 1.82599997520446777
0.396000027656555176 0.630000114440917969 1.82599997520446777
0.371999979019165039 0.654000043869018555 1.82599997520446777
0.378000020980834961 0.654000043869018555 1.82599997520446777
0.402000069618225098 0.654000043869018555 1.82599997520446777
0.360000014305114746 0.677999973297119141 1.82599997520446777
0.353999972343444824 0.701999902725219727 1.82599997520446777
0.378000020980834961 0.707999944686889648 1.82599997520446777
0.011999964714050293 0.720000028610229492 1.82599997520446777
0.251999974250793457 0.720000028610229492 1.82599997520446777
-0.773999989032745361 0.726000070571899414 1.82599997520446777
-0.75 0.726000070571899414 1.82599997520446777
-0.719999969005584717 0.726000070571899414 1.82599997520446777
-0.695999979972839355 0.726000070571899414 1.82599997520446777
-0.671999990940093994 0.726000070571899414 1.82599997520446777
-0.648000001907348633 0.726000070571899414 1.82599997520446777
-0.624000012874603271 0.726000070571899414 1.82599997520446777
-0.599999964237213135 0.726000070571899414 1.82599997520446777
-0.56400001049041748 0.726000070571899414 1.82599997520446777
0.258000016212463379 0.726000070571899414 1.82599997520446777
0.353999972343444824 0.726000070571899414 1.82599997520446777
-0.546000003814697266 0.732000112533569336 1.82599997520446777
-0.522000014781951904 0.732000112533569336 1.82599997520446777
-0.498000025749206543 0.732000112533569336 1.82599997520446777
-0.473999977111816406 0.732000112533569336 1.82599997520446777
-0.444000005722045898 0.732000112533569336 1.82599997520446777
-0.419999957084655762 0.732000112533569336 1.82599997520446777
-0.396000027656555176 0.732000112533569336 1.82599997520446777
-0.371999979019165039 0.732000112533569336 1.82599997520446777
-0.348000049591064453 0.732000112533569336 1.82599997520446777
-0.324000000953674316 0.732000112533569336 1.82599997520446777
-0.29999995231628418 0.732000112533569336 1.82599997520446777
-0.269999980926513672 0.732000112533569336 1.82599997520446777
-0.245999932289123535 0.732000112533569336 1.82599997520446777
-0.222000002861022949 0.732000112533569336 1.82599997520446777
-0.0360000133514404297 0.732000112533569336 1.82599997520446777
0.276000022888183594 0.732000112533569336 1.82599997520446777
0.30000007152557373 0.732000112533569336 1.82599997520446777
0.330000042915344238 0.732000112533569336 1.82599997520446777
-0.779999971389770508 0.737999916076660156 1.82599997520446777
-0.197999954223632812 0.737999916076660156 1.82599997520446777
-0.174000024795532227 0.737999916076660156 1.82599997520446777
-0.14999997615814209 0.737999916076660156 1.82599997520446777
-0.120000004768371582 0.737999916076660156 1.82599997520446777
-0.0959999561309814453 0.737999916076660156 1.82599997520446777
-0.0720000267028808594 0.737999916076660156 1.82599997520446777
-0.0239999294281005859 0.737999916076660156 1.82599997520446777
0 0.737999916076660156 1.82599997520446777
-0.779999971389770508 0.756000041961669922 1.82599997520446777
-0.761999964714050293 0.756000041961669922 1.82599997520446777
0.258000016212463379 0.756000041961669922 1.82599997520446777
-1.29600000381469727 0.276000022888183594 1.8320000171661377
-1.40999996662139893 0.287999987602233887 1.8320000171661377
-1.46399998664855957 0.294000029563903809 1.8320000171661377
-1.35599994659423828 0.30000007152557373 1.8320000171661377
0.384000062942504883 0.618000030517578125 1.8320000171661377
0.371999979019165039 0.648000001907348633 1.8320000171661377
0.402000069618225098 0.648000001907348633 1.8320000171661377
-0.744000017642974854 0.720000028610229492 1.8320000171661377
-0.719999969005584717 0.720000028610229492 1.8320000171661377
0.348000049591064453 0.0780000686645507812 1.83800005912780762
-1.34399998188018799 0.30000007152557373 1.83800005912780762
-0.78600001335144043 0.71399998664855957 1.83800005912780762
-0.768000006675720215 0.720000028610229492 1.83800005912780762
-0.695999979972839355 0.720000028610229492 1.83800005912780762
-0.671999990940093994 0.720000028610229492 1.83800005912780762
-0.635999977588653564 0.720000028610229492 1.83800005912780762
-0.624000012874603271 0.720000028610229492 1.83800005912780762
0.348000049591064453 -0.0479999780654907227 1.84399998188018799
-1.27799999713897705 0.246000051498413086 1.84399998188018799
-1.5 0.294000029563903809 1.84399998188018799
-1.42799997329711914 0.294000029563903809 1.84399998188018799
-1.36800003051757812 0.330000042915344238 1.84399998188018799
-1.34399998188018799 0.330000042915344238 1.84399998188018799
-0.791999995708465576 0.696000099182128906 1.84399998188018799
0.348000049591064453 0.71399998664855957 1.84399998188018799
-0.599999964237213135 0.720000028610229492 1.84399998188018799
-0.569999992847442627 0.720000028610229492 1.84399998188018799
-0.546000003814697266 0.720000028610229492 1.84399998188018799
0.342000007629394531 -0.0659999847412109375 1.85000002384185791
0.348000049591064453 -0.0479999780654907227 1.85000002384185791
0.353999972343444824 -0.0479999780654907227 1.85000002384185791
0.360000014305114746 0 1.85000002384185791
0.384000062942504883 0 1.85000002384185791
0.342000007629394531 0.0839999914169311523 1.85000002384185791
-1.48800003528594971 0.198000073432922363 1.85000002384185791
-1.5 0.203999996185302734 1.85000002384185791
-1.47000002861022949 0.203999996185302734 1.85000002384185791
-1.44599997997283936 0.203999996185302734 1.85000002384185791
-1.42200005054473877 0.203999996185302734 1.85000002384185791
-1.39800000190734863 0.203999996185302734 1.85000002384185791
-1.35599994659423828 0.210000038146972656 1.85000002384185791
-1.34399998188018799 0.210000038146972656 1.85000002384185791
-1.31999993324279785 0.210000038146972656 1.85000002384185791
-1.29600000381469727 0.210000038146972656 1.85000002384185791
-1.27199995517730713 0.215999960899353027 1.85000002384185791
-1.26600003242492676 0.228000044822692871 1.85000002384185791
-1.30799996852874756 0.276000022888183594 1.85000002384185791
-1.43400001525878906 0.294000029563903809 1.85000002384185791
-1.39199995994567871 0.294000029563903809 1.85000002384185791
-1.32599997520446777 0.294000029563903809 1.85000002384185791
-1.38600003719329834 0.30000007152557373 1.85000002384185791
-1.3320000171661377 0.30000007152557373 1.85000002384185791
-1.31999993324279785 0.30000007152557373 1.85000002384185791
-1.3739999532699585 0.312000036239624023 1.85000002384185791
-1.3739999532699585 0.330000042915344238 1.85000002384185791
-1.34399998188018799 0.330000042915344238 1.85000002384185791
-1.35599994659423828 0.353999972343444824 1.85000002384185791
0.389999985694885254 0.618000030517578125 1.85000002384185791
0.378000020980834961 0.635999917984008789 1.85000002384185791
0.366000056266784668 0.641999959945678711 1.85000002384185791
0.353999972343444824 0.654000043869018555 1.85000002384185791
0.378000020980834961 0.654000043869018555 1.85000002384185791
0.353999972343444824 0.677999973297119141 1.85000002384185791
0.348000049591064453 0.696000099182128906 1.85000002384185791
0.348000049591064453 0.701999902725219727 1.85000002384185791
0.366000056266784668 0.701999902725219727 1.85000002384185791
0.258000016212463379 0.707999944686889648 1.85000002384185791
-0.779999971389770508 0.71399998664855957 1.85000002384185791
-0.761999964714050293 0.71399998664855957 1.85000002384185791
-0.75 0.71399998664855957 1.85000002384185791
-0.702000021934509277 0.71399998664855957 1.85000002384185791
-0.695999979972839355 0.71399998664855957 1.85000002384185791
-0.671999990940093994 0.720000028610229492 1.85000002384185791
-0.648000001907348633 0.720000028610229492 1.85000002384185791
-0.624000012874603271 0.720000028610229492 1.85000002384185791
-0.599999964237213135 0.720000028610229492 1.85000002384185791
-0.569999992847442627 0.720000028610229492 1.85000002384185791
-0.546000003814697266 0.720000028610229492 1.85000002384185791
-0.522000014781951904 0.720000028610229492 1.85000002384185791
-0.498000025749206543 0.720000028610229492 1.85000002384185791
-0.473999977111816406 0.720000028610229492 1.85000002384185791
-0.365999937057495117 0.720000028610229492 1.85000002384185791
-0.348000049591064453 0.720000028610229492 1.85000002384185791
-0.324000000953674316 0.720000028610229492 1.85000002384185791
-0.29999995231628418 0.720000028610229492 1.85000002384185791
-0.269999980926513672 0.720000028610229492 1.85000002384185791
0.276000022888183594 0.720000028610229492 1.85000002384185791
0.30000007152557373 0.720000028610229492 1.85000002384185791
-0.791999995708465576 0.726000070571899414 1.85000002384185791
-0.546000003814697266 0.726000070571899414 1.85000002384185791
-0.522000014781951904 0.726000070571899414 1.85000002384185791
-0.498000025749206543 0.726000070571899414 1.85000002384185791
-0.473999977111816406 0.726000070571899414 1.85000002384185791
-0.444000005722045898 0.726000070571899414 1.85000002384185791
-0.419999957084655762 0.726000070571899414 1.85000002384185791
-0.396000027656555176 0.726000070571899414 1.85000002384185791
-0.371999979019165039 0.726000070571899414 1.85000002384185791
-0.348000049591064453 0.726000070571899414 1.85000002384185791
-0.324000000953674316 0.726000070571899414 1.85000002384185791
-0.29999995231628418 0.726000070571899414 1.85000002384185791
-0.269999980926513672 0.726000070571899414 1.85000002384185791
-0.245999932289123535 0.726000070571899414 1.85000002384185791
-0.222000002861022949 0.726000070571899414 1.85000002384185791
-0.197999954223632812 0.726000070571899414 1.85000002384185791
-0.174000024795532227 0.726000070571899414 1.85000002384185791
-0.14999997615814209 0.726000070571899414 1.85000002384185791
-0.0479999780654907227 0.726000070571899414 1.85000002384185791
0.00600004196166992188 0.726000070571899414 1.85000002384185791
0.269999980926513672 0.726000070571899414 1.85000002384185791
0.276000022888183594 0.726000070571899414 1.85000002384185791
0.30000007152557373 0.726000070571899414 1.85000002384185791
0.330000042915344238 0.726000070571899414 1.85000002384185791
-0.120000004768371582 0.732000112533569336 1.85000002384185791
-0.0959999561309814453 0.732000112533569336 1.85000002384185791
-0.0720000267028808594 0.732000112533569336 1.85000002384185791
-0.0239999294281005859 0.732000112533569336 1.85000002384185791
-0.768000006675720215 0.762000083923339844 1.85000002384185791
-0.797999978065490723 0.768000125885009766 1.85000002384185791
0.378000020980834961 -0.00600004196166992188 1.85600006580352783
-1.40400004386901855 0.198000073432922363 1.85600006580352783
-1.28400003910064697 0.240000009536743164 1.85600006580352783
-1.37999999523162842 0.330000042915344238 1.85600006580352783
-1.31999993324279785 0.330000042915344238 1.85600006580352783
-1.34399998188018799 0.353999972343444824 1.85600006580352783
0.378000020980834961 0.599999904632568359 1.85600006580352783
0.348000049591064453 0.671999931335449219 1.85600006580352783
-0.444000005722045898 0.720000028610229492 1.85600006580352783
-0.419999957084655762 0.720000028610229492 1.85600006580352783
